0.206867 -0.418794 -0.030292 0.223426 -0.112203 0.000000 
-0.161363 -0.159612 0.050947 -0.233402 0.089356 0.006905 
0.099260 -0.008336 0.075115 0.000000 0.000000 0.250018 
-0.141514 -0.279040 0.075115 0.000000 0.000000 0.250018 
-0.094771 0.088468 0.009065 -0.088547 0.233770 -0.004443 
0.059477 0.070184 0.074670 0.001299 0.004736 0.249969 
0.027868 0.154672 0.028666 0.243068 0.021393 -0.054490 
0.042097 -0.295246 -0.081417 0.000000 0.000000 -0.250018 
0.100371 -0.415719 0.075115 0.000000 0.000000 0.250018 
0.190199 -0.218860 0.001471 0.220801 0.117284 0.000000 
-0.080760 -0.436343 0.075115 0.000000 0.000000 0.250018 
-0.096207 -0.092228 -0.081417 0.000000 0.000000 -0.250018 
-0.066707 -0.102067 0.075115 0.000000 0.000000 0.250018 
-0.085637 -0.361112 -0.081417 0.000000 0.000000 -0.250018 
0.006783 0.042211 0.081416 0.000051 0.000031 0.250018 
-0.170433 -0.264194 -0.081197 -0.003833 0.001894 -0.249981 
-0.164925 -0.251375 0.074891 -0.004570 0.001789 0.249969 
-0.064089 -0.409224 0.075115 0.000000 0.000000 0.250018 
0.073954 -0.285992 -0.081417 0.000000 0.000000 -0.250018 
0.033357 0.015790 0.077561 0.249934 0.000000 -0.006464 
0.053181 -0.274745 -0.081417 0.000000 0.000000 -0.250018 
0.041782 0.461453 0.061593 0.249781 0.003171 -0.010412 
0.089084 -0.136085 0.075115 0.000000 0.000000 0.250018 
0.032418 0.403366 0.042460 -0.006017 0.000003 -0.249945 
0.027200 0.136832 0.080964 0.011433 0.000092 0.249756 
-0.038713 -0.441609 0.075115 0.000000 0.000000 0.250018 
-0.052087 -0.016759 -0.081417 0.000000 0.000000 -0.250018 
0.149464 -0.314352 0.075115 0.000000 0.000000 0.250018 
-0.055988 -0.251586 -0.081417 0.000000 0.000000 -0.250018 
0.141130 -0.081395 0.074583 0.005487 -0.001394 0.249954 
-0.162672 -0.462913 -0.061627 -0.164482 -0.188243 -0.004349 
-0.118980 -0.315751 0.075115 0.000000 0.000000 0.250018 
0.168295 -0.051578 -0.049716 0.249569 -0.014170 -0.004807 
-0.120995 -0.014606 -0.081417 -0.000000 -0.000000 -0.250018 
-0.181213 -0.229376 0.074249 -0.035125 0.017360 0.246928 
0.021888 0.314858 0.080604 0.010606 0.000076 0.249793 
0.111743 -0.435886 0.075115 0.000000 0.000000 0.250018 
0.036449 -0.146414 -0.081417 0.000000 0.000000 -0.250018 
0.156724 -0.062131 -0.079958 0.038953 -0.013219 -0.246611 
0.015126 -0.394582 -0.081417 0.000000 0.000000 -0.250018 
-0.229852 -0.345783 -0.037051 -0.247375 -0.035900 -0.005037 
-0.194484 -0.276013 0.074616 -0.003833 0.001895 0.249981 
0.085907 0.002170 -0.081417 0.000000 0.000000 -0.250018 
0.054588 -0.419696 0.075115 0.000000 0.000000 0.250018 
0.154042 0.039150 -0.079212 0.032471 0.026237 -0.246508 
0.016507 -0.499672 0.053082 0.000000 -0.249920 0.006970 
0.026847 -0.227026 0.075115 0.000000 0.000000 0.250018 
-0.159949 -0.217193 0.074738 -0.004570 0.001789 0.249969 
0.113468 -0.023064 -0.081417 0.000000 0.000000 -0.250018 
-0.159211 -0.154941 -0.066068 -0.233491 0.089274 -0.004578 
0.155132 -0.096519 -0.027029 0.242573 -0.060556 0.000000 
0.160942 0.035755 -0.012690 0.244417 0.052622 0.000000 
0.031620 -0.231068 0.075115 0.000000 0.000000 0.250018 
-0.145675 -0.263017 -0.081417 -0.000000 -0.000000 -0.250018 
-0.001575 -0.406587 -0.081417 0.000000 0.000000 -0.250018 
0.069179 -0.063425 -0.081417 0.000000 0.000000 -0.250018 
-0.160560 -0.322609 0.075115 0.000000 0.000000 0.250018 
-0.015150 -0.372836 0.080306 0.000000 0.000000 0.250018 
0.077802 0.030745 0.075115 0.000000 0.000000 0.250018 
-0.104721 -0.299606 -0.081417 0.000000 0.000000 -0.250018 
-0.212363 -0.407748 0.042449 -0.223351 -0.112163 0.006531 
-0.228650 -0.351889 -0.052561 -0.247375 -0.035900 -0.005037 
0.168985 -0.175580 -0.040751 0.225070 0.108777 -0.004470 
-0.101102 0.086263 0.057417 -0.090836 0.232894 0.004252 
-0.040720 0.473409 0.063188 -0.186783 0.165867 -0.010433 
0.189413 -0.217381 -0.026861 0.220801 0.117284 0.000000 
-0.023069 0.001325 0.081417 0.000000 0.000000 0.250018 
-0.041630 0.098012 0.006228 -0.061061 0.242297 -0.008505 
-0.204754 -0.422732 0.045346 -0.223343 -0.112177 0.006568 
-0.026069 0.101390 -0.048978 -0.230177 0.085639 -0.046831 
0.191263 -0.426884 -0.080212 0.036040 -0.016691 -0.246843 
0.177485 -0.407227 -0.081101 0.004056 -0.001879 -0.249978 
-0.180238 -0.198527 0.004795 -0.225106 0.108794 0.000000 
0.073309 -0.497343 -0.017047 0.020303 -0.249192 0.000000 
0.199120 -0.236128 0.049022 0.220758 0.117186 0.006472 
0.151664 -0.166696 -0.080609 0.039948 0.018128 -0.246139 
0.103330 -0.332026 -0.081417 0.000000 0.000000 -0.250018 
0.027952 0.203028 0.042893 0.239620 0.009732 -0.070683 
0.183649 -0.433436 0.074268 0.039177 -0.045097 0.242776 
-0.214718 -0.265021 -0.024174 -0.220801 0.117284 0.000000 
0.229325 -0.346160 -0.060312 0.247392 -0.035808 -0.004896 
-0.169122 -0.042583 0.003001 -0.249631 -0.013894 0.000000 
0.103869 0.083763 -0.045387 0.080763 0.236319 -0.011816 
-0.155166 0.044411 0.051402 -0.201480 0.147890 0.006565 
-0.154844 -0.097673 -0.021576 -0.242573 -0.060556 0.000000 
-0.009951 -0.368928 0.080306 0.000000 0.000000 0.250018 
0.016201 0.399121 0.069706 0.238945 0.011040 0.072748 
-0.037814 0.095774 -0.064049 -0.054416 0.243594 -0.014474 
-0.032271 -0.500018 -0.020512 0.000000 -0.250018 0.000000 
-0.026783 0.109863 -0.028905 -0.233616 0.082163 -0.034373 
-0.134758 -0.325950 -0.081417 -0.000000 -0.000000 -0.250018 
-0.170141 -0.022819 0.043778 -0.249545 -0.013889 0.006564 
0.228134 -0.315176 0.047500 0.246259 0.042523 0.007550 
-0.004571 0.469544 0.075596 0.000000 0.000000 0.250018 
-0.108841 -0.177072 0.075115 0.000000 0.000000 0.250018 
-0.095079 -0.493291 -0.031770 -0.059198 -0.242908 0.000000 
-0.085701 -0.451819 -0.081307 -0.000214 -0.004462 -0.249978 
-0.103364 0.065421 -0.080680 -0.005879 0.007465 -0.249837 
0.114355 -0.488172 -0.055454 0.059201 -0.242866 -0.004480 
0.222342 -0.280464 -0.032913 0.246320 0.042534 -0.005116 
-0.077267 -0.306451 0.075115 0.000000 0.000000 0.250018 
-0.040472 0.378458 0.072405 -0.243025 -0.008224 0.058138 
-0.166307 0.004813 -0.071048 -0.242136 0.051616 -0.034853 
-0.080044 0.080915 0.073903 -0.005251 0.036094 0.247343 
0.088218 -0.398939 0.075115 0.000000 0.000000 0.250018 
-0.134769 -0.159306 0.074763 -0.005340 0.001901 0.249953 
0.167150 -0.003004 0.071068 0.239963 0.051164 0.048053 
0.053880 -0.137144 0.075115 0.000000 0.000000 0.250018 
-0.067555 -0.102918 -0.081417 0.000000 0.000000 -0.250018 
-0.041758 0.068083 -0.081089 -0.001201 0.004389 -0.249976 
-0.011937 -0.054417 -0.081417 -0.000000 -0.000000 -0.250018 
0.081210 -0.045852 0.075115 0.000000 0.000000 0.250018 
0.117522 0.044026 0.074806 0.005046 0.008231 0.249831 
-0.062069 0.055503 -0.081219 -0.000973 0.004271 -0.249979 
-0.114486 0.080634 -0.021136 -0.084400 0.235245 -0.006723 
0.102595 -0.449314 -0.081325 0.001058 -0.004822 -0.249969 
-0.083851 -0.495600 -0.055845 -0.059188 -0.242870 -0.004463 
-0.229307 -0.346917 -0.055737 -0.247375 -0.035900 -0.005037 
-0.106361 0.083948 -0.005927 -0.088558 0.233801 -0.001766 
0.127563 -0.159603 -0.081221 0.005340 0.001901 -0.249953 
-0.020093 -0.323640 0.075115 0.000000 0.000000 0.250018 
-0.074771 0.047179 -0.081331 -0.000565 0.004620 -0.249974 
-0.205543 -0.408775 0.073101 -0.031882 -0.016021 0.247458 
0.205622 -0.379112 0.074517 0.003731 -0.000489 0.249989 
-0.057566 -0.473228 -0.080957 -0.000317 -0.004348 -0.249980 
-0.135488 0.069891 -0.037326 -0.195680 0.155342 -0.009322 
0.226530 -0.307787 -0.058587 0.246332 0.042478 -0.005020 
-0.041404 -0.474629 0.074648 -0.000004 -0.004299 0.249981 
0.123854 0.007787 -0.081295 0.004150 0.001418 -0.249979 
-0.087811 -0.251395 0.075115 0.000000 0.000000 0.250018 
0.115564 -0.486957 -0.071112 0.058678 -0.240531 -0.034790 
0.101251 -0.372294 0.075115 0.000000 0.000000 0.250018 
0.068515 -0.491587 0.073121 0.002763 -0.033980 0.247682 
-0.225901 -0.301122 -0.033336 -0.246320 0.042534 -0.005116 
-0.209516 -0.325419 0.074521 -0.003665 0.000581 0.249990 
-0.197486 -0.430027 0.072669 -0.039177 -0.045097 0.242776 
0.186087 -0.210628 -0.016371 0.225106 0.108794 0.000000 
0.012849 -0.313483 -0.081417 0.000000 0.000000 -0.250018 
-0.144357 -0.285876 0.075115 0.000000 0.000000 0.250018 
0.016064 -0.106851 0.060930 0.000000 0.000000 0.250018 
0.038044 -0.125532 -0.081417 0.000000 0.000000 -0.250018 
-0.086582 0.037178 -0.081417 0.000000 0.000000 -0.250018 
0.011247 -0.500018 0.032051 0.000000 -0.250018 0.000000 
-0.038190 -0.050895 -0.081417 0.000000 0.000000 -0.250018 
0.231405 -0.332909 -0.008772 0.246372 0.042543 0.000000 
-0.069575 -0.137828 -0.081417 0.000000 0.000000 -0.250018 
-0.090224 0.077714 0.074154 -0.005251 0.036094 0.247343 
0.029528 -0.449562 0.075079 0.000004 -0.004299 0.249981 
-0.084678 -0.459339 -0.081174 -0.000214 -0.004462 -0.249978 
-0.205660 -0.248727 -0.052325 -0.220798 0.117208 -0.004385 
0.089313 -0.196455 -0.081417 0.000000 0.000000 -0.250018 
0.045516 0.428952 0.068593 -0.056728 -0.020471 0.242635 
0.001233 0.130122 -0.009214 0.000000 0.245978 -0.044763 
0.155634 -0.084803 -0.078381 0.234470 -0.079568 -0.034659 
-0.152793 -0.026126 -0.080844 -0.005136 -0.000211 -0.249965 
-0.047210 -0.055835 0.075115 0.000000 0.000000 0.250018 
0.101780 -0.390197 0.075115 0.000000 0.000000 0.250018 
-0.033727 -0.278462 -0.081417 -0.000000 -0.000000 -0.250018 
0.089396 0.061598 0.074746 0.000599 0.004581 0.249975 
-0.102330 -0.491524 0.004931 -0.059198 -0.242908 -0.000000 
0.145845 -0.423769 -0.081417 0.000000 0.000000 -0.250018 
-0.096087 0.088378 0.030604 -0.088547 0.233770 -0.004443 
0.018511 0.433349 0.042861 -0.002705 -0.000054 -0.250003 
-0.071556 -0.497486 -0.012564 -0.020303 -0.249192 -0.000000 
0.028728 -0.151610 0.060930 0.000000 0.000000 0.250018 
0.018786 0.195562 0.029595 0.111624 0.029653 -0.221742 
-0.105316 -0.011248 -0.081417 0.000000 0.000000 -0.250018 
-0.154968 -0.468661 0.022360 -0.119706 -0.219498 -0.000000 
0.003557 -0.379163 0.077720 0.000415 -0.140938 0.206507 
0.140791 0.064317 0.041959 0.201224 0.148275 0.005655 
-0.089348 -0.424824 -0.081417 0.000000 0.000000 -0.250018 
0.029707 0.135637 0.034458 0.246453 0.021291 -0.036286 
0.173891 -0.453758 -0.026802 0.164682 -0.188119 0.000002 
-0.103534 -0.156553 -0.081417 -0.000000 -0.000000 -0.250018 
0.015174 -0.329545 0.075115 0.000000 0.000000 0.250018 
0.064408 -0.027607 -0.081417 -0.000000 -0.000000 -0.250018 
-0.081236 -0.444178 -0.081417 0.000000 0.000000 -0.250018 
-0.221202 -0.388938 0.063202 -0.223343 -0.112177 0.006568 
0.225967 -0.301415 0.008041 0.246372 0.042543 0.000000 
-0.175969 -0.435458 -0.080812 -0.006630 -0.012116 -0.249636 
-0.211369 -0.258716 -0.010913 -0.220801 0.117284 0.000000 
0.012432 -0.159942 0.069982 -0.077288 0.237772 0.000000 
0.045327 0.448174 0.054833 0.248588 -0.000716 -0.026683 
0.041926 0.460847 0.064863 0.249781 0.003171 -0.010412 
0.051965 -0.325795 -0.081417 0.000000 0.000000 -0.250018 
0.216519 -0.268490 0.042108 0.220722 0.117242 0.006679 
-0.025069 -0.249803 0.075115 0.000000 0.000000 0.250018 
-0.095862 -0.237643 0.075115 0.000000 0.000000 0.250018 
0.192726 -0.223617 0.016802 0.220801 0.117284 0.000000 
-0.040910 -0.386921 0.075115 0.000000 0.000000 0.250018 
0.058994 -0.293179 0.075115 0.000000 0.000000 0.250018 
0.163571 -0.351687 -0.081417 0.000000 0.000000 -0.250018 
0.117706 -0.408984 -0.081417 0.000000 0.000000 -0.250018 
0.182487 -0.426847 -0.080875 0.004592 -0.001613 -0.249970 
-0.054496 -0.348616 -0.081417 0.000000 0.000000 -0.250018 
0.134199 -0.179810 -0.081236 0.005340 0.001938 -0.249953 
-0.040525 0.359316 0.062898 -0.249486 -0.009634 -0.013142 
-0.115369 -0.290095 0.075115 0.000000 0.000000 0.250018 
0.055545 -0.498544 0.049493 0.020295 -0.249095 0.006969 
0.040371 0.354694 0.063361 0.249486 -0.009634 -0.013142 
-0.166169 -0.274658 -0.081342 -0.003833 0.001894 -0.249981 
0.142471 0.016640 -0.080920 0.004714 0.001157 -0.249971 
-0.122613 -0.323084 -0.081417 0.000000 0.000000 -0.250018 
-0.137517 -0.253915 -0.081417 -0.000000 -0.000000 -0.250018 
-0.133175 -0.480461 -0.036987 -0.119689 -0.219466 -0.004227 
-0.102036 -0.180475 0.075115 0.000000 0.000000 0.250018 
0.029207 -0.070416 0.060930 0.000000 0.000000 0.250018 
-0.060344 -0.448534 -0.081387 -0.000214 -0.004462 -0.249978 
-0.173446 -0.311712 0.075027 -0.003856 0.000473 0.249987 
-0.095954 -0.121941 -0.081417 0.000000 0.000000 -0.250018 
-0.113918 -0.488700 -0.012836 -0.059198 -0.242908 -0.000000 
-0.167895 0.003458 -0.016114 -0.244417 0.052622 0.000000 
-0.206660 -0.250186 -0.041297 -0.220765 0.117265 -0.004525 
0.163444 0.021620 -0.062964 0.244404 0.052490 -0.004493 
0.153734 -0.102120 0.036290 0.242573 -0.060556 0.000000 
-0.159077 -0.081889 -0.015067 -0.236631 -0.080713 0.000000 
-0.148697 -0.195361 -0.081065 -0.004570 0.002074 -0.249967 
-0.146649 -0.310894 0.075115 0.000000 0.000000 0.250018 
0.169693 -0.030486 0.044604 0.249545 -0.013889 0.006564 
0.037815 -0.049613 -0.081417 -0.000000 -0.000000 -0.250018 
-0.104038 -0.413062 0.075115 0.000000 0.000000 0.250018 
0.031582 0.123532 0.036964 0.243620 0.042550 -0.036709 
0.128322 -0.058272 -0.081298 0.005136 -0.001629 -0.249960 
-0.082170 -0.336542 0.075115 0.000000 0.000000 0.250018 
0.010476 -0.032141 0.081417 0.000000 0.000000 0.250018 
-0.081352 -0.496636 -0.022520 -0.059198 -0.242908 0.000000 
-0.045368 0.441734 0.055388 -0.248550 -0.000961 -0.027032 
0.189380 -0.217319 -0.028510 0.220801 0.117284 0.000000 
0.133459 -0.447861 0.074955 0.000770 -0.005103 0.249964 
0.082857 -0.447634 -0.081384 0.000214 -0.004462 -0.249978 
-0.160328 -0.167676 -0.079275 -0.039950 0.018129 -0.246138 
-0.162152 -0.072876 0.005141 -0.236631 -0.080713 -0.000000 
-0.169617 -0.457500 0.036855 -0.164679 -0.188121 0.000000 
-0.111545 0.082321 0.050179 -0.090836 0.232894 0.004252 
0.031813 0.390770 0.072381 -0.238497 -0.007627 0.074629 
-0.147829 -0.472069 -0.057492 -0.119749 -0.219432 -0.004317 
-0.111113 -0.106849 0.075115 0.000000 0.000000 0.250018 
-0.212136 -0.385793 0.073740 -0.031882 -0.016021 0.247458 
-0.149616 -0.037450 0.074594 -0.004829 -0.000234 0.249971 
0.044140 0.418582 0.048841 0.248608 -0.000960 -0.026493 
0.096535 0.043811 -0.081344 0.000565 0.004620 -0.249974 
0.203160 -0.345964 -0.080921 0.003731 -0.000489 -0.249989 
0.110867 -0.321359 -0.081417 0.000000 0.000000 -0.250018 
0.022103 0.235223 0.080641 0.010160 0.000141 0.249811 
0.172201 -0.181898 0.011454 0.225106 0.108794 0.000000 
0.154363 0.021784 0.073691 0.035779 0.008060 0.247313 
-0.003148 0.342616 0.077389 0.000000 0.034995 0.247556 
0.197968 -0.356152 -0.080978 0.003731 -0.000489 -0.249989 
-0.150034 -0.316547 -0.081417 -0.000000 -0.000000 -0.250018 
-0.067930 -0.292624 0.075115 0.000000 0.000000 0.250018 
-0.222886 -0.361328 0.072876 -0.029496 -0.004235 0.248235 
-0.009341 0.362619 0.075596 0.000000 0.000000 0.250018 
0.051382 -0.178311 0.075115 0.000000 0.000000 0.250018 
0.137884 -0.254031 0.075115 0.000000 0.000000 0.250018 
-0.226114 -0.306009 -0.063964 -0.246332 0.042478 -0.005020 
0.134098 -0.387301 -0.081417 0.000000 0.000000 -0.250018 
0.062457 -0.010670 0.075115 0.000000 0.000000 0.250018 
-0.036240 0.095948 -0.066924 -0.055914 0.240204 -0.041039 
-0.034765 0.033375 0.075115 0.000000 0.000000 0.250018 
0.031518 0.147024 0.056089 0.249907 0.002037 -0.007141 
-0.062025 -0.001709 0.075115 0.000000 0.000000 0.250018 
-0.111676 -0.185267 0.075115 0.000000 0.000000 0.250018 
0.148981 -0.214736 -0.081221 0.004570 0.002074 -0.249967 
0.077152 0.091898 -0.000403 0.034822 0.247566 -0.002710 
0.000820 0.209632 0.029188 0.000000 0.031900 -0.247974 
0.098668 -0.492416 0.033635 0.059198 -0.242908 0.000000 
-0.023813 0.120288 -0.035576 -0.238364 0.019605 -0.072848 
-0.227394 -0.311522 -0.047896 -0.246320 0.042534 -0.005116 
0.003701 -0.296623 0.075115 0.000000 0.000000 0.250018 
-0.113759 -0.054346 0.075115 0.000000 0.000000 0.250018 
-0.113752 -0.488207 -0.061545 -0.059201 -0.242866 -0.004480 
-0.035978 0.105443 0.024436 -0.226312 0.103644 -0.023437 
-0.115217 0.078375 -0.069106 -0.079971 0.234001 -0.036839 
0.023846 -0.325599 0.075115 0.000000 0.000000 0.250018 
0.001496 -0.500018 0.037090 0.000000 -0.250018 0.000000 
0.062256 -0.007289 0.075115 0.000000 0.000000 0.250018 
0.017117 -0.303075 -0.081417 0.000000 0.000000 -0.250018 
0.073974 0.020578 -0.081417 0.000000 0.000000 -0.250018 
0.128284 -0.147251 0.074810 0.005748 0.001639 0.249946 
0.149515 -0.100429 0.072977 0.041295 -0.010345 0.246367 
-0.080103 0.089041 -0.073571 -0.031354 0.245577 -0.034894 
0.200424 -0.238111 -0.026959 0.220801 0.117284 0.000000 
-0.010659 0.288162 0.080879 -0.000024 0.000000 0.250018 
-0.099564 -0.170302 -0.081417 0.000000 0.000000 -0.250018 
-0.120683 -0.483070 0.072863 -0.008627 -0.039306 0.246758 
-0.083181 0.013185 -0.081417 0.000000 0.000000 -0.250018 
0.185106 -0.443940 0.019616 0.164680 -0.188120 0.000000 
0.025704 -0.416741 -0.081417 0.000000 0.000000 -0.250018 
-0.042365 -0.293643 -0.081417 -0.000000 -0.000000 -0.250018 
0.081921 -0.223094 -0.081417 0.000000 0.000000 -0.250018 
0.075669 -0.181219 -0.081417 0.000000 0.000000 -0.250018 
-0.169119 -0.031157 0.063499 -0.245061 -0.013911 0.047543 
-0.040310 -0.477281 0.074602 -0.000004 -0.004299 0.249981 
0.226347 -0.303614 0.024600 0.246372 0.042543 0.000000 
-0.010268 -0.500018 -0.023261 0.000000 -0.250018 0.000000 
-0.187235 -0.214220 -0.062201 -0.225070 0.108777 -0.004470 
0.030560 -0.100843 0.060930 0.000000 0.000000 0.250018 
0.145512 -0.404770 -0.081417 0.000000 0.000000 -0.250018 
0.151884 -0.121758 0.027849 0.249744 -0.011686 0.000000 
0.161116 -0.458341 0.073176 0.027562 -0.035914 0.245885 
0.040205 -0.339205 -0.081417 0.000000 0.000000 -0.250018 
0.042494 -0.469767 0.074731 0.000004 -0.004299 0.249981 
0.166296 -0.060725 0.024231 0.236631 -0.080713 0.000000 
0.149694 -0.117871 0.071637 0.244210 -0.012178 0.052172 
0.168769 -0.000600 0.033197 0.244417 0.052622 0.000000 
-0.005346 -0.499959 0.042799 0.000000 -0.249920 0.006970 
-0.049760 -0.312008 -0.081417 -0.000000 -0.000000 -0.250018 
0.081550 -0.228194 -0.081417 0.000000 0.000000 -0.250018 
0.168590 -0.052138 0.001517 0.249631 -0.013894 0.000000 
-0.161723 0.032127 -0.030976 -0.244417 0.052622 0.000000 
0.055961 -0.496577 -0.076508 0.020046 -0.246523 -0.036514 
0.081088 -0.460564 -0.081155 0.000214 -0.004462 -0.249978 
0.018748 -0.047443 0.067822 -0.052127 -0.243857 0.018034 
0.006949 0.124153 -0.046064 0.000000 0.248384 -0.028534 
0.014220 -0.243912 -0.081417 0.000000 0.000000 -0.250018 
-0.044721 -0.190794 0.075115 0.000000 0.000000 0.250018 
0.080350 -0.496281 0.058225 0.020285 -0.249096 0.006949 
0.006042 -0.472087 0.074692 0.000006 -0.004296 0.249981 
-0.106348 -0.209712 -0.081417 -0.000000 -0.000000 -0.250018 
0.086151 0.052977 -0.081198 0.000565 0.004620 -0.249974 
0.078360 0.067364 -0.080960 0.001936 0.003446 -0.249986 
-0.001997 -0.000570 0.081417 0.000000 0.000000 0.250018 
-0.067325 -0.265574 0.075115 0.000000 0.000000 0.250018 
0.023012 0.278027 0.080573 0.010411 0.000130 0.249801 
0.199025 -0.431466 -0.046289 0.164661 -0.188095 -0.003973 
0.087734 0.024156 0.075115 0.000000 0.000000 0.250018 
-0.168436 -0.054104 0.042302 -0.249515 -0.014164 0.007096 
-0.135475 -0.418580 0.075115 0.000000 0.000000 0.250018 
-0.173476 -0.399179 -0.081226 -0.004056 -0.001879 -0.249978 
0.011517 0.062537 0.081415 0.000059 -0.000019 0.250018 
0.160586 0.035926 -0.050679 0.244381 0.052614 -0.004309 
-0.192014 -0.223052 0.054644 -0.220758 0.117186 0.006472 
0.006172 -0.028098 -0.081417 0.000000 0.000000 -0.250018 
0.027055 0.076329 0.081412 0.000059 -0.000019 0.250018 
0.030959 0.158800 0.044397 0.249839 0.006195 -0.007139 
-0.226452 -0.369832 0.025617 -0.247426 -0.035908 0.000000 
-0.027808 -0.046595 0.081417 0.000000 0.000000 0.250018 
0.033885 0.111121 0.029131 0.229447 0.096960 -0.021480 
-0.052865 -0.230136 -0.081417 0.000000 0.000000 -0.250018 
0.169819 -0.439542 0.074475 0.006630 -0.012116 0.249636 
-0.230054 -0.325081 -0.022263 -0.246372 0.042543 0.000000 
0.003863 -0.235282 -0.081417 0.000000 0.000000 -0.250018 
-0.051929 -0.435119 -0.081417 0.000000 0.000000 -0.250018 
0.086953 0.090789 0.044517 0.036518 0.247280 0.005294 
-0.201138 -0.239454 -0.019278 -0.220801 0.117284 0.000000 
-0.170142 -0.022111 0.045267 -0.249545 -0.013889 0.006564 
0.085672 -0.158505 0.075115 0.000000 0.000000 0.250018 
0.199300 -0.391023 0.074567 0.004056 -0.001879 0.249978 
0.012822 0.135873 0.002785 0.000000 0.138617 -0.208072 
0.127690 0.059198 -0.080183 0.020154 0.021301 -0.248292 
-0.159938 -0.074659 -0.072558 -0.234470 -0.079568 -0.034659 
-0.072495 -0.282646 -0.081417 0.000000 0.000000 -0.250018 
-0.152997 -0.137083 0.042194 -0.233402 0.089356 0.006905 
0.024871 -0.062238 -0.081417 0.000000 0.000000 -0.250018 
0.105909 -0.261126 -0.081417 0.000000 0.000000 -0.250018 
-0.107714 -0.490212 0.030586 -0.059198 -0.242908 0.000000 
0.103036 -0.137704 -0.081417 0.000000 0.000000 -0.250018 
-0.151456 -0.028351 -0.080870 -0.005136 -0.000211 -0.249965 
0.102840 -0.353368 0.075115 0.000000 0.000000 0.250018 
0.028396 -0.394953 0.075115 0.000000 0.000000 0.250018 
-0.067917 -0.362799 -0.081417 0.000000 0.000000 -0.250018 
0.202236 -0.427929 -0.034798 0.223384 -0.112198 -0.004446 
-0.010043 -0.499398 -0.065226 -0.000065 -0.249972 -0.004800 
-0.144583 0.058828 -0.011101 -0.198000 0.152607 -0.003985 
0.229806 -0.327249 -0.062551 0.246332 0.042478 -0.005020 
-0.155755 -0.467685 -0.060458 -0.119749 -0.219432 -0.004317 
-0.043679 -0.066484 0.061146 0.177981 -0.164440 0.061573 
0.040202 0.360188 0.070891 0.245531 -0.010427 0.045983 
-0.078658 -0.264453 -0.081417 0.000000 0.000000 -0.250018 
0.115782 -0.367011 -0.081417 0.000000 0.000000 -0.250018 
0.130688 -0.449888 0.074922 0.000770 -0.005103 0.249964 
-0.155221 -0.292746 -0.081417 -0.000000 -0.000000 -0.250018 
0.068264 -0.191659 -0.081417 0.000000 0.000000 -0.250018 
-0.171079 -0.456219 -0.017415 -0.164679 -0.188121 0.000000 
0.220898 -0.276656 -0.010441 0.220801 0.117284 0.000000 
-0.038762 -0.499807 -0.043591 -0.000065 -0.249972 -0.004800 
0.219578 -0.321263 0.073446 0.028934 0.004969 0.248288 
-0.223614 -0.306128 0.072673 -0.028934 0.004969 0.248288 
-0.147992 -0.388420 -0.081417 0.000000 0.000000 -0.250018 
-0.082226 -0.439344 0.075115 0.000000 0.000000 0.250018 
-0.040349 -0.095451 0.060930 0.000000 0.000000 0.250018 
0.074769 0.032623 0.075115 0.000000 0.000000 0.250018 
0.159462 -0.159105 -0.074633 0.231057 0.088344 -0.036288 
-0.101453 -0.465322 -0.081021 -0.001058 -0.004822 -0.249969 
-0.190469 -0.379304 0.074749 -0.003873 -0.000384 0.249987 
-0.017479 -0.500018 -0.006301 0.000000 -0.250018 0.000000 
-0.172173 -0.181840 0.011757 -0.225106 0.108794 0.000000 
-0.098114 -0.053237 -0.081417 -0.000000 -0.000000 -0.250018 
0.051854 -0.405417 -0.081417 0.000000 0.000000 -0.250018 
-0.052313 -0.439937 -0.081417 0.000000 0.000000 -0.250018 
-0.008214 -0.330615 0.075115 0.000000 0.000000 0.250018 
0.021118 0.246255 0.037227 0.099355 0.028479 -0.227654 
0.024290 0.243006 0.080547 0.010160 0.000141 0.249811 
0.174824 -0.452320 -0.060515 0.164482 -0.188243 -0.004352 
0.026408 -0.499211 0.064211 0.000063 -0.244886 0.050392 
-0.067969 -0.327215 -0.081417 0.000000 0.000000 -0.250018 
-0.105365 -0.449168 0.075014 -0.000770 -0.005103 0.249964 
0.142875 0.060210 0.064589 0.197416 0.144907 0.050373 
-0.163753 -0.300575 -0.081417 -0.000000 -0.000000 -0.250018 
-0.036667 -0.499426 0.061617 -0.000065 -0.249917 0.007085 
0.030901 0.118952 0.026142 0.238129 0.072843 -0.022293 
-0.119069 -0.410303 -0.081417 0.000000 0.000000 -0.250018 
0.012924 0.222522 0.030878 0.000000 0.033114 -0.247815 
-0.090300 -0.032283 -0.081417 0.000000 0.000000 -0.250018 
-0.128365 -0.438737 0.075115 0.000000 0.000000 0.250018 
-0.031193 -0.044327 0.081417 0.000000 0.000000 0.250018 
-0.069097 -0.496570 -0.069343 -0.020074 -0.246508 -0.036604 
-0.039564 -0.233149 -0.081417 -0.000000 -0.000000 -0.250018 
-0.184528 -0.207405 -0.026111 -0.225106 0.108794 0.000000 
-0.027323 0.135054 0.017931 -0.246453 0.021286 -0.036285 
0.222049 -0.280039 0.048249 0.246273 0.042468 0.007410 
0.135649 -0.174937 0.074865 0.005340 0.001938 0.249953 
-0.202228 -0.241506 0.010083 -0.220801 0.117284 0.000000 
0.082007 -0.496476 -0.014119 0.059198 -0.242908 0.000000 
0.010824 0.306229 0.080879 0.000024 0.000000 0.250018 
-0.105762 -0.490102 0.062232 -0.059190 -0.242820 0.006612 
0.154828 0.044440 -0.050948 0.197994 0.152602 -0.004441 
-0.199494 -0.237537 -0.063680 -0.220798 0.117208 -0.004385 
0.153418 -0.469343 0.046384 0.119728 -0.219393 0.006377 
-0.100068 0.064003 0.074676 -0.000599 0.004581 0.249975 
-0.030659 0.083641 -0.080890 -0.010363 0.034256 -0.247443 
-0.008806 -0.020509 0.081417 0.000000 0.000000 0.250018 
-0.103282 0.049632 -0.081153 -0.005879 0.007465 -0.249837 
0.079507 -0.495067 0.068922 0.019849 -0.244104 0.050280 
0.146436 0.043327 0.073621 0.035578 0.026252 0.246077 
0.047200 -0.417774 0.075115 0.000000 0.000000 0.250018 
-0.170090 -0.025197 -0.018318 -0.249631 -0.013894 -0.000000 
-0.171071 -0.456226 0.023965 -0.164679 -0.188121 0.000000 
-0.111961 0.028732 0.075115 0.000000 0.000000 0.250018 
-0.140243 -0.067630 0.074690 -0.005136 -0.001629 0.249960 
0.151163 -0.052687 0.074552 0.005136 -0.000024 0.249965 
-0.130530 -0.196557 -0.081417 -0.000000 -0.000000 -0.250018 
0.040395 -0.327631 -0.081417 0.000000 0.000000 -0.250018 
-0.198421 -0.432285 0.027522 -0.164679 -0.188121 0.000000 
0.085005 -0.495746 -0.028672 0.059198 -0.242908 0.000000 
-0.025947 0.285271 0.048345 -0.236082 0.005770 -0.082103 
-0.076472 -0.097831 -0.081417 0.000000 0.000000 -0.250018 
-0.146631 -0.189044 -0.081051 -0.004570 0.002074 -0.249967 
0.097723 -0.492647 0.039253 0.059198 -0.242908 0.000000 
0.023007 0.102645 -0.060352 0.208138 0.129898 -0.048102 
0.030594 0.103596 0.080917 0.010549 -0.000093 0.249795 
-0.111414 -0.139565 0.075115 0.000000 0.000000 0.250018 
0.121358 -0.227804 -0.081417 0.000000 0.000000 -0.250018 
0.114886 -0.487891 -0.063682 0.059201 -0.242866 -0.004480 
0.026037 0.352201 0.074965 0.073487 0.008360 0.238827 
0.153207 0.042191 -0.078999 0.032471 0.026237 -0.246508 
-0.130805 0.074413 0.062832 -0.091712 0.232509 0.006125 
0.079830 -0.382070 -0.081417 0.000000 0.000000 -0.250018 
0.048518 -0.456158 -0.081266 0.000317 -0.004348 -0.249980 
0.186545 -0.212930 0.063008 0.225016 0.108776 0.006657 
-0.036207 -0.252288 -0.081417 -0.000000 -0.000000 -0.250018 
0.208844 -0.414858 -0.003695 0.223426 -0.112203 0.000000 
-0.227806 -0.312064 0.006556 -0.246372 0.042543 0.000000 
-0.028918 0.190634 0.044238 -0.240624 0.011865 -0.066845 
0.052635 0.095739 0.062297 0.062650 0.242019 0.003255 
-0.174388 -0.345612 0.075050 -0.003873 -0.000384 0.249987 
0.033376 0.118346 0.052073 0.246234 0.042773 -0.006946 
-0.003384 0.142143 0.081416 -0.000022 0.000000 0.250018 
-0.075250 -0.397686 -0.081417 0.000000 0.000000 -0.250018 
0.160364 0.032019 0.067496 0.240234 0.051597 0.046196 
0.004487 -0.196234 -0.081417 0.000000 0.000000 -0.250018 
0.127817 -0.407617 -0.081417 0.000000 0.000000 -0.250018 
0.137873 -0.366963 0.075115 0.000000 0.000000 0.250018 
0.036659 -0.362027 0.079975 -0.000190 0.145769 0.203125 
0.130329 -0.246689 -0.081417 0.000000 0.000000 -0.250018 
-0.095251 0.084880 -0.070917 -0.078481 0.233679 -0.041756 
0.155828 -0.093730 -0.029956 0.242573 -0.060556 0.000000 
0.220441 -0.284349 -0.077943 0.243417 0.041801 -0.038855 
-0.166223 -0.060939 -0.000551 -0.236631 -0.080713 -0.000000 
-0.229274 -0.350391 0.015044 -0.247426 -0.035908 -0.000000 
0.215127 -0.396386 -0.078970 0.031882 -0.016021 -0.247458 
0.190729 -0.219858 0.036477 0.220801 0.117284 0.000000 
-0.009526 -0.408341 0.075115 0.000000 0.000000 0.250018 
-0.083121 -0.176313 0.075115 0.000000 0.000000 0.250018 
0.183775 -0.285577 0.074818 0.003856 0.000473 0.249987 
0.151907 -0.121253 0.026368 0.249744 -0.011686 0.000000 
-0.117167 -0.409698 0.075115 0.000000 0.000000 0.250018 
-0.158235 -0.084359 -0.024189 -0.236631 -0.080713 0.000000 
-0.095740 0.013972 -0.081417 0.000000 0.000000 -0.250018 
0.023485 -0.229634 0.075115 0.000000 0.000000 0.250018 
0.167930 -0.031767 -0.074388 0.246779 -0.014855 -0.037257 
0.203173 -0.342789 0.074625 0.003731 -0.000489 0.249989 
-0.115781 0.067021 -0.080187 -0.012627 0.028122 -0.248110 
0.166917 -0.047274 -0.074912 0.246779 -0.014855 -0.037257 
-0.112683 0.024211 -0.081388 -0.004150 0.001418 -0.249979 
-0.046394 0.041442 0.075115 0.000000 0.000000 0.250018 
-0.169118 -0.002225 0.035810 -0.244417 0.052622 0.000000 
-0.005477 -0.500018 -0.015845 0.000000 -0.250018 0.000000 
-0.226118 -0.305631 -0.060571 -0.246332 0.042478 -0.005020 
-0.018448 -0.235437 0.075115 0.000000 0.000000 0.250018 
0.001628 0.100999 0.081417 0.000020 0.000000 0.250018 
-0.077819 -0.129998 0.075115 0.000000 0.000000 0.250018 
-0.057515 -0.498630 -0.025598 -0.020303 -0.249192 -0.000000 
0.011848 0.497925 0.065890 0.136015 0.209720 0.005104 
-0.130487 -0.455686 -0.081106 -0.000770 -0.005103 -0.249964 
0.154993 -0.149629 0.072656 0.039979 0.015226 0.246330 
0.218669 -0.352159 0.073534 0.029496 -0.004235 0.248235 
0.116931 -0.290445 0.075115 0.000000 0.000000 0.250018 
0.111415 -0.463920 -0.081006 0.001058 -0.004822 -0.249969 
0.190902 -0.221304 0.060940 0.220758 0.117186 0.006472 
0.071601 -0.066597 0.075115 0.000000 0.000000 0.250018 
0.091273 -0.421645 0.075115 0.000000 0.000000 0.250018 
-0.096847 -0.491736 -0.069618 -0.058639 -0.240561 -0.034652 
0.062680 -0.408225 -0.081417 0.000000 0.000000 -0.250018 
0.008734 0.188571 0.026449 0.000000 0.085018 -0.235118 
0.170816 -0.455620 -0.066539 0.163248 -0.186831 -0.030871 
0.040015 -0.392723 0.075115 0.000000 0.000000 0.250018 
0.051401 -0.332823 0.075115 0.000000 0.000000 0.250018 
0.024884 0.421082 0.067838 0.007134 0.000277 0.249916 
0.153825 -0.098835 -0.066732 0.240106 -0.059985 -0.035492 
0.039749 0.460908 0.043488 0.243983 0.005007 -0.054368 
0.037681 -0.270283 0.075115 0.000000 0.000000 0.250018 
0.190893 -0.343229 0.074807 0.003731 -0.000489 0.249989 
0.086287 0.090573 -0.004103 0.034822 0.247566 -0.002710 
-0.229876 -0.324049 0.020928 -0.246372 0.042543 0.000000 
-0.099727 -0.073804 -0.081417 0.000000 0.000000 -0.250018 
0.009140 -0.258274 0.075115 0.000000 0.000000 0.250018 
0.170549 -0.016952 -0.005316 0.249631 -0.013894 0.000000 
-0.138643 -0.477563 0.027302 -0.119706 -0.219498 -0.000000 
-0.018977 -0.261018 -0.081417 -0.000000 -0.000000 -0.250018 
0.008919 -0.243104 -0.081417 0.000000 0.000000 -0.250018 
-0.172435 -0.276514 -0.081260 -0.003833 0.001894 -0.249981 
0.152299 -0.106561 0.052306 0.242473 -0.060576 0.006799 
0.054616 -0.185943 0.075115 0.000000 0.000000 0.250018 
0.089962 0.087831 -0.059086 0.080763 0.236319 -0.011816 
-0.167778 0.004003 0.021551 -0.244417 0.052622 0.000000 
-0.169147 -0.042138 0.016717 -0.249631 -0.013894 0.000000 
0.017271 0.148021 0.012950 0.122261 0.096106 -0.195767 
-0.206818 -0.250149 -0.024231 -0.220801 0.117284 0.000000 
-0.209773 -0.369914 -0.080635 -0.030656 -0.004020 -0.248098 
0.117510 -0.101002 -0.081313 0.005692 -0.001071 -0.249951 
0.151679 0.034144 -0.079891 0.032635 0.008008 -0.247749 
0.090128 -0.335152 -0.081417 0.000000 0.000000 -0.250018 
0.170898 -0.242386 -0.081025 0.003833 0.001894 -0.249981 
0.154993 -0.097074 0.026510 0.242573 -0.060556 0.000000 
0.093783 -0.287872 0.075115 0.000000 0.000000 0.250018 
-0.048725 -0.104471 0.060930 0.000000 0.000000 0.250018 
-0.094199 -0.238261 0.075115 0.000000 0.000000 0.250018 
-0.009029 -0.500018 -0.012609 0.000000 -0.250018 0.000000 
0.021115 -0.436094 0.075115 0.000000 0.000000 0.250018 
0.078597 -0.384414 0.075115 0.000000 0.000000 0.250018 
0.004491 0.354001 0.042515 0.000007 0.057860 -0.243230 
-0.128537 -0.482715 -0.051265 -0.119689 -0.219466 -0.004227 
0.015493 0.145867 0.081415 0.000022 0.000000 0.250018 
0.181363 -0.393283 0.074841 0.004056 -0.001879 0.249978 
-0.102573 -0.290064 0.075115 0.000000 0.000000 0.250018 
-0.072712 -0.212164 0.075115 0.000000 0.000000 0.250018 
-0.170238 -0.178417 -0.046661 -0.225060 0.108796 -0.004510 
0.029073 0.172766 0.040167 0.240274 0.017942 -0.066748 
-0.060202 -0.321629 0.075115 0.000000 0.000000 0.250018 
-0.186402 -0.211280 -0.007959 -0.225106 0.108794 0.000000 
0.198990 -0.328961 0.074683 0.003665 0.000581 0.249990 
0.198076 -0.233691 0.016329 0.220801 0.117284 0.000000 
-0.003381 -0.248591 -0.081417 -0.000000 -0.000000 -0.250018 
0.098318 -0.151840 0.075115 0.000000 0.000000 0.250018 
0.144854 -0.474177 0.030389 0.119704 -0.219499 -0.000003 
-0.113479 0.069866 -0.079982 -0.012627 0.028122 -0.248110 
-0.010982 0.270887 0.080879 -0.000024 0.000000 0.250018 
-0.030752 0.185174 0.058293 -0.249803 0.005588 -0.008716 
0.208643 -0.288538 -0.080422 0.030318 0.004808 -0.248126 
0.113068 -0.088361 0.075115 0.000000 0.000000 0.250018 
-0.030713 0.164416 0.079707 -0.248647 0.005202 0.025615 
-0.065118 0.093636 0.003690 -0.034822 0.247566 -0.002710 
-0.003729 -0.192548 0.075115 0.000000 0.000000 0.250018 
-0.152878 0.047801 -0.017183 -0.200167 0.149806 0.000000 
-0.030046 0.207227 0.053015 -0.249794 0.005965 -0.008715 
0.162732 -0.462958 -0.057396 0.164482 -0.188243 -0.004352 
-0.012592 0.497350 0.050063 -0.135581 0.209926 -0.007578 
0.025694 -0.480134 -0.080855 0.000006 -0.004296 -0.249981 
0.096691 -0.109161 -0.081417 0.000000 0.000000 -0.250018 
0.131569 -0.311156 0.075115 0.000000 0.000000 0.250018 
-0.144491 0.059345 0.032837 -0.201275 0.148314 0.000000 
-0.059794 -0.480781 -0.080823 -0.000317 -0.004348 -0.249980 
-0.029870 0.210155 0.050375 -0.239621 0.009732 -0.070683 
-0.093386 0.037741 0.075115 0.000000 0.000000 0.250018 
-0.132657 -0.480828 -0.022158 -0.119706 -0.219498 -0.000000 
0.098947 -0.124076 0.075115 0.000000 0.000000 0.250018 
-0.074549 -0.345110 -0.081417 0.000000 0.000000 -0.250018 
0.096242 -0.285714 -0.081417 0.000000 0.000000 -0.250018 
0.020753 0.210237 0.080714 0.009907 0.000132 0.249821 
-0.132371 -0.224695 0.075115 0.000000 0.000000 0.250018 
0.035921 0.354573 0.050579 0.123058 -0.170026 -0.135855 
-0.185053 -0.208913 -0.042897 -0.225070 0.108777 -0.004470 
-0.073833 -0.326420 -0.081417 0.000000 0.000000 -0.250018 
-0.159651 0.037615 0.063861 -0.197508 0.145733 0.047555 
-0.028963 -0.110346 -0.081417 0.000000 0.000000 -0.250018 
0.088173 0.086282 -0.076379 0.078481 0.233679 -0.041756 
0.037511 -0.385697 -0.081417 0.000000 0.000000 -0.250018 
0.002599 -0.396210 -0.081417 0.000000 0.000000 -0.250018 
-0.205034 -0.422445 -0.008716 -0.223427 -0.112201 -0.000000 
-0.013875 0.355269 0.075577 -0.006899 -0.002768 0.249907 
-0.007522 -0.286969 0.075115 0.000000 0.000000 0.250018 
0.029854 -0.127945 -0.081417 0.000000 0.000000 -0.250018 
-0.016464 0.437991 0.042882 0.002705 -0.000036 -0.250003 
0.025527 0.018675 0.081415 0.000051 0.000031 0.250018 
-0.223536 -0.384514 -0.060169 -0.223392 -0.112183 -0.004425 
0.032982 -0.080337 -0.081417 0.000000 0.000000 -0.250018 
-0.168459 -0.053555 0.042584 -0.249515 -0.014164 0.007096 
-0.183231 -0.204720 0.016947 -0.225106 0.108794 0.000000 
0.167042 -0.171224 0.034467 0.225106 0.108794 0.000000 
-0.211802 -0.408968 0.039221 -0.223427 -0.112201 -0.000000 
-0.199810 -0.269483 0.074424 -0.035125 0.017360 0.246928 
-0.134214 -0.215940 0.075115 0.000000 0.000000 0.250018 
0.187090 -0.260561 0.074612 0.003833 0.001894 0.249981 
-0.102145 -0.491569 -0.019356 -0.059198 -0.242908 0.000000 
0.055384 0.094330 -0.033416 0.032857 0.247749 -0.007060 
0.008892 0.340539 0.039312 0.000000 0.057864 -0.243229 
-0.018627 0.122602 -0.041365 -0.056091 0.239956 -0.042236 
-0.127555 0.076085 0.048046 -0.091712 0.232509 0.006125 
0.224712 -0.295801 -0.046386 0.246332 0.042478 -0.005020 
-0.093505 0.084905 -0.074058 -0.078481 0.233679 -0.041756 
0.179509 -0.197018 0.011480 0.225106 0.108794 0.000000 
-0.188360 -0.355014 0.074822 -0.003731 -0.000489 0.249989 
-0.224049 -0.296510 -0.068455 -0.243273 0.041950 -0.039588 
0.110621 0.046263 0.074906 0.006723 0.007221 0.249823 
0.137405 0.063767 -0.073939 0.191728 0.154922 -0.041814 
-0.054637 -0.227353 -0.081417 0.000000 0.000000 -0.250018 
0.038731 -0.307262 0.075115 0.000000 0.000000 0.250018 
-0.081330 -0.114747 0.075115 0.000000 0.000000 0.250018 
0.084461 0.089507 -0.063160 0.080763 0.236319 -0.011816 
-0.041479 -0.131833 0.060930 0.000000 0.000000 0.250018 
-0.026638 0.211077 0.080480 -0.009907 0.000132 0.249821 
-0.163301 -0.381777 -0.081417 0.000000 0.000000 -0.250018 
0.127502 -0.146055 0.074820 0.005748 0.001639 0.249946 
-0.229977 -0.324636 0.000868 -0.246372 0.042543 0.000000 
0.160815 -0.075238 -0.060525 0.236624 -0.080611 -0.004466 
-0.098060 -0.492565 -0.006449 -0.059198 -0.242908 -0.000000 
-0.147852 0.033962 -0.080401 -0.032635 0.008008 -0.247749 
0.032428 0.109728 0.007270 0.229447 0.096960 -0.021480 
0.229417 -0.348938 0.042968 0.247316 -0.035892 0.007434 
-0.119918 -0.356679 0.075115 0.000000 0.000000 0.250018 
-0.141194 -0.419951 -0.081417 0.000000 0.000000 -0.250018 
-0.067237 -0.116629 -0.081417 0.000000 0.000000 -0.250018 
0.094350 -0.067872 0.075115 0.000000 0.000000 0.250018 
-0.022283 0.100996 -0.067170 -0.220589 0.106986 -0.049023 
0.184370 -0.232554 0.074024 0.035125 0.017360 0.246928 
0.103956 0.085305 0.025754 0.088547 0.233770 -0.004443 
0.084383 0.090740 -0.013360 0.034822 0.247566 -0.002710 
-0.038515 -0.070989 -0.081417 -0.000000 -0.000000 -0.250018 
0.032740 -0.060027 0.060930 0.000000 0.000000 0.250018 
-0.181674 -0.252579 -0.080937 -0.003833 0.001894 -0.249981 
0.134721 0.072269 0.019795 0.200157 0.149799 -0.002535 
-0.145984 0.002908 -0.080917 -0.004714 0.001157 -0.249971 
0.019309 0.475666 0.042836 -0.007662 -0.000321 -0.249900 
0.120332 -0.286529 0.075115 0.000000 0.000000 0.250018 
-0.014800 0.392650 0.042909 0.002776 -0.000043 -0.250002 
-0.007452 0.342354 0.039744 0.000000 0.057864 -0.243229 
0.171130 -0.373306 0.075058 0.003873 -0.000384 0.249987 
-0.000407 0.058125 -0.081417 -0.000000 -0.000000 -0.250018 
0.030785 -0.403669 -0.081417 0.000000 0.000000 -0.250018 
-0.018794 0.391254 0.069596 -0.001894 0.194753 0.156768 
-0.129261 -0.146042 -0.081082 -0.005748 0.001639 -0.249946 
-0.079496 0.067861 -0.080940 -0.000973 0.004271 -0.249979 
0.092319 -0.493964 0.004166 0.059198 -0.242908 0.000000 
-0.230530 -0.327837 0.028209 -0.246372 0.042543 0.000000 
-0.231289 -0.335122 0.047391 -0.247316 -0.035892 0.007434 
-0.116108 -0.419694 -0.081417 0.000000 0.000000 -0.250018 
0.220490 -0.363117 -0.079432 0.029496 -0.004235 -0.248235 
-0.051191 -0.313408 0.075115 0.000000 0.000000 0.250018 
0.045209 -0.392794 -0.081417 0.000000 0.000000 -0.250018 
0.166991 -0.459745 0.042422 0.164636 -0.188067 0.005864 
-0.039833 -0.061029 0.064599 0.177981 -0.164440 0.061573 
0.120293 -0.136242 0.074922 0.005748 0.001639 0.249946 
0.168695 -0.234470 0.074701 0.004570 0.001789 0.249969 
0.163364 -0.164111 -0.044632 0.225060 0.108796 -0.004510 
0.035012 0.109720 0.074193 0.093720 -0.000350 0.231787 
0.082546 -0.370579 -0.081417 0.000000 0.000000 -0.250018 
-0.163616 0.023334 -0.003666 -0.244417 0.052622 0.000000 
0.122857 -0.334675 -0.081417 0.000000 0.000000 -0.250018 
0.058553 -0.190066 -0.081417 0.000000 0.000000 -0.250018 
-0.041200 0.411522 0.070916 -0.242706 -0.001184 0.060010 
0.188241 -0.217298 -0.069057 0.218866 0.115961 -0.034050 
-0.168241 -0.055023 0.003377 -0.236631 -0.080713 -0.000000 
0.045746 -0.278635 0.075115 0.000000 0.000000 0.250018 
0.080209 -0.042552 -0.081417 -0.000000 -0.000000 -0.250018 
-0.168170 -0.173558 0.037399 -0.225106 0.108794 0.000000 
-0.103731 -0.020673 0.075115 0.000000 0.000000 0.250018 
0.214687 -0.264961 0.005177 0.220801 0.117284 0.000000 
-0.111457 0.080194 0.072073 -0.090206 0.228210 0.047874 
-0.024328 -0.156075 0.073406 0.077288 0.237772 0.000000 
0.081548 -0.496588 0.030411 0.059198 -0.242908 0.000000 
0.040106 -0.145860 0.072344 -0.189761 0.162787 0.000000 
0.053103 -0.129234 0.060930 0.000000 0.000000 0.250018 
-0.126029 0.076817 0.034856 -0.090848 0.232925 -0.001137 
0.082534 0.091357 0.020515 0.035944 0.247414 -0.001764 
-0.151294 -0.470664 -0.010075 -0.119706 -0.219498 -0.000000 
-0.150414 -0.277856 0.075115 0.000000 0.000000 0.250018 
0.110152 -0.098255 0.075115 0.000000 0.000000 0.250018 
-0.097844 -0.054973 -0.081417 0.000000 0.000000 -0.250018 
-0.030672 0.102321 -0.022238 -0.231074 0.087719 -0.037666 
-0.095174 -0.311774 -0.081417 0.000000 0.000000 -0.250018 
-0.027951 -0.352242 -0.081417 0.000000 0.000000 -0.250018 
0.002294 -0.046711 -0.081417 0.000000 0.000000 -0.250018 
0.040321 -0.090784 0.060930 0.000000 0.000000 0.250018 
0.033369 -0.034847 0.078053 0.249934 0.000000 -0.006464 
-0.229723 -0.347294 0.037970 -0.247426 -0.035908 0.000000 
0.145979 -0.473484 -0.036720 0.119686 -0.219468 -0.004227 
0.113100 -0.315538 -0.081417 0.000000 0.000000 -0.250018 
0.225345 -0.377460 0.009476 0.247426 -0.035908 0.000000 
-0.016908 -0.500018 0.004416 0.000000 -0.250018 0.000000 
0.001118 -0.379397 0.077565 0.000415 -0.140938 0.206507 
-0.066590 0.035667 -0.081417 0.000000 0.000000 -0.250018 
-0.028083 -0.092374 -0.081417 -0.000000 -0.000000 -0.250018 
0.209325 -0.254867 0.005205 0.220801 0.117284 0.000000 
0.018632 -0.276477 0.075115 0.000000 0.000000 0.250018 
0.181423 -0.201088 0.042492 0.225028 0.108756 0.006598 
0.180521 -0.265369 0.074749 0.003833 0.001894 0.249981 
0.153641 -0.100820 0.055602 0.242473 -0.060576 0.006799 
-0.026241 0.146853 0.017979 -0.122257 0.096105 -0.195770 
-0.124153 -0.484890 -0.062461 -0.119689 -0.219466 -0.004227 
0.214800 -0.265176 0.007097 0.220801 0.117284 0.000000 
0.164505 -0.059677 -0.076071 0.234281 -0.079813 -0.035370 
0.117614 -0.426315 -0.081417 0.000000 0.000000 -0.250018 
0.214575 -0.403446 -0.010849 0.223426 -0.112203 0.000000 
0.097412 -0.094818 -0.081417 0.000000 0.000000 -0.250018 
0.106768 -0.026844 0.075115 0.000000 0.000000 0.250018 
-0.107031 -0.010493 0.075115 0.000000 0.000000 0.250018 
-0.145924 0.057094 0.000472 -0.200167 0.149806 0.000000 
-0.133380 -0.235368 0.075115 0.000000 0.000000 0.250018 
-0.148282 -0.202757 0.074832 -0.004570 0.002074 0.249967 
0.107221 -0.041614 0.075115 0.000000 0.000000 0.250018 
0.141536 0.062918 0.052127 0.201224 0.148275 0.005655 
-0.231191 -0.337181 -0.027176 -0.247426 -0.035908 -0.000000 
0.140847 -0.154637 0.074597 0.005340 0.001901 0.249953 
0.229267 -0.347822 -0.051231 0.247375 -0.035900 -0.005037 
0.091114 -0.081433 -0.081417 0.000000 0.000000 -0.250018 
-0.179984 -0.448368 -0.035245 -0.164658 -0.188097 -0.003975 
-0.081092 0.034672 -0.081417 0.000000 0.000000 -0.250018 
-0.137039 -0.461220 0.074543 -0.009808 -0.011109 0.249578 
-0.158840 0.002833 -0.079924 -0.036480 0.007776 -0.247220 
-0.057677 -0.443683 -0.081417 0.000000 0.000000 -0.250018 
0.083312 -0.321333 -0.081417 0.000000 0.000000 -0.250018 
0.221974 -0.387671 0.058584 0.223350 -0.112165 0.006531 
0.132456 -0.122851 -0.080931 0.005692 -0.000276 -0.249953 
-0.200699 -0.430147 -0.039405 -0.164658 -0.188097 -0.003975 
-0.159777 0.006291 0.073394 -0.037396 0.007973 0.247076 
0.126122 -0.264280 -0.081417 0.000000 0.000000 -0.250018 
-0.021132 0.052158 0.081412 -0.000059 -0.000019 0.250018 
0.001818 0.140002 0.081417 0.000022 0.000000 0.250018 
-0.068700 -0.404601 0.075115 0.000000 0.000000 0.250018 
-0.035438 0.111302 0.059525 -0.227178 0.104248 -0.005606 
0.229039 -0.322817 -0.062704 0.246332 0.042478 -0.005020 
0.142462 -0.082237 -0.080851 0.005136 -0.001629 -0.249960 
-0.133766 -0.462533 -0.080915 -0.009808 -0.011109 -0.249578 
0.125792 -0.261676 0.075115 0.000000 0.000000 0.250018 
-0.200412 -0.399689 -0.080715 -0.036040 -0.016691 -0.246843 
0.056487 -0.250206 0.075115 0.000000 0.000000 0.250018 
-0.020318 -0.336746 0.075115 0.000000 0.000000 0.250018 
0.018056 -0.460951 0.074883 0.000004 -0.004299 0.249981 
-0.035623 -0.099004 -0.081417 -0.000000 -0.000000 -0.250018 
-0.069145 -0.294484 -0.081417 0.000000 0.000000 -0.250018 
-0.154354 -0.099633 0.002119 -0.242573 -0.060556 0.000000 
0.141681 -0.399875 0.075115 0.000000 0.000000 0.250018 
-0.009492 -0.146284 0.060930 0.000000 0.000000 0.250018 
0.207750 -0.417036 -0.023768 0.223426 -0.112203 0.000000 
-0.059103 -0.016686 0.075115 0.000000 0.000000 0.250018 
0.189149 -0.440327 0.043102 0.164636 -0.188067 0.005864 
-0.216044 -0.327399 -0.080283 -0.028934 0.004969 -0.248288 
0.027971 0.323857 0.058255 0.249825 0.002112 -0.009594 
-0.076303 -0.131756 0.075115 0.000000 0.000000 0.250018 
0.187963 -0.214510 -0.016475 0.225106 0.108794 0.000000 
-0.157911 -0.080261 0.068657 -0.232395 -0.078864 0.047771 
0.195362 -0.228582 0.025574 0.220801 0.117284 0.000000 
-0.036917 -0.243332 0.075115 0.000000 0.000000 0.250018 
-0.156376 -0.085639 0.067479 -0.237878 -0.059428 0.048898 
0.108222 -0.294200 0.075115 0.000000 0.000000 0.250018 
0.140209 -0.305897 0.075115 0.000000 0.000000 0.250018 
-0.032760 0.111686 0.019657 -0.229447 0.096960 -0.021480 
-0.220972 -0.390708 0.017809 -0.223427 -0.112201 -0.000000 
0.016495 0.093373 -0.081278 0.025291 0.013738 -0.248355 
-0.221633 -0.387055 0.065760 -0.219381 -0.110187 0.047325 
0.152461 -0.298776 0.075115 0.000000 0.000000 0.250018 
-0.165247 0.013418 0.059700 -0.244357 0.052482 0.006635 
0.006271 -0.499605 -0.054460 -0.000000 -0.249973 -0.004722 
-0.203966 -0.383237 0.074534 -0.003873 -0.000384 0.249987 
0.026791 0.088382 0.081349 0.022770 0.004987 0.248928 
-0.075154 -0.496637 -0.061973 -0.020289 -0.249148 -0.004708 
-0.190108 -0.437345 -0.075123 -0.163248 -0.186831 -0.030871 
-0.135593 -0.383771 0.075115 0.000000 0.000000 0.250018 
0.060440 -0.135687 -0.081417 -0.000000 -0.000000 -0.250018 
0.047762 -0.079529 -0.081417 0.000000 0.000000 -0.250018 
0.044844 0.391681 0.052797 0.248673 -0.000963 -0.025878 
-0.010292 -0.500018 -0.012069 0.000000 -0.250018 0.000000 
0.147738 -0.472604 0.034052 0.119704 -0.219499 -0.000003 
-0.119051 -0.095487 -0.081302 -0.005692 -0.001071 -0.249951 
-0.160780 -0.464862 -0.048810 -0.164482 -0.188243 -0.004349 
0.108113 -0.490115 -0.000280 0.059198 -0.242908 0.000000 
-0.028418 0.311039 0.065759 -0.249795 0.003059 -0.010088 
-0.115505 -0.488313 0.029924 -0.059198 -0.242908 -0.000000 
-0.019043 -0.110234 -0.081417 0.000000 0.000000 -0.250018 
0.141231 -0.389106 0.075115 0.000000 0.000000 0.250018 
0.153414 -0.103005 0.044238 0.242484 -0.060534 0.006757 
-0.027632 0.185309 0.038356 -0.240274 0.017942 -0.066748 
0.174611 -0.186883 -0.027839 0.225106 0.108794 0.000000 
0.152321 -0.112412 -0.022112 0.249744 -0.011686 0.000000 
0.199971 -0.239602 0.065960 0.216661 0.115012 0.048365 
0.157965 -0.085173 -0.026040 0.242573 -0.060556 0.000000 
0.028491 0.464691 0.042561 -0.007922 -0.000187 -0.249892 
0.024048 -0.421167 0.075115 0.000000 0.000000 0.250018 
0.008630 -0.428987 0.075115 0.000000 0.000000 0.250018 
-0.229444 -0.349218 0.031007 -0.247426 -0.035908 0.000000 
-0.012269 -0.100879 0.060930 0.000000 0.000000 0.250018 
-0.004135 0.123686 -0.050131 -0.005958 0.248494 -0.026909 
0.050076 -0.059981 -0.081417 0.000000 0.000000 -0.250018 
-0.042155 0.095634 -0.048001 -0.058009 0.242831 -0.013294 
-0.095293 -0.395129 0.075115 0.000000 0.000000 0.250018 
0.020047 0.134282 0.081292 0.011499 0.000053 0.249753 
-0.185214 -0.392497 0.074784 -0.004056 -0.001879 0.249978 
0.155404 -0.466140 0.070991 0.117884 -0.215569 0.046282 
0.107423 -0.224003 0.075115 0.000000 0.000000 0.250018 
-0.065385 -0.186835 0.075115 0.000000 0.000000 0.250018 
-0.193910 -0.374422 -0.081005 -0.003872 -0.000384 -0.249987 
-0.035472 0.477805 0.049502 -0.178570 0.174177 -0.016848 
-0.074672 -0.416434 -0.081417 0.000000 0.000000 -0.250018 
-0.006052 0.034054 -0.081417 -0.000000 -0.000000 -0.250018 
-0.166795 -0.170712 -0.018553 -0.225106 0.108794 0.000000 
0.006181 -0.499822 -0.042947 -0.000000 -0.249973 -0.004722 
-0.192212 -0.437720 -0.023306 -0.164679 -0.188121 0.000000 
-0.054596 -0.121662 -0.081417 0.000000 0.000000 -0.250018 
0.164912 -0.048784 0.072823 0.037417 -0.002250 0.247192 
0.028502 0.302579 0.070310 0.249678 0.002922 0.012689 
-0.154266 -0.099987 -0.022429 -0.242573 -0.060556 0.000000 
-0.052280 0.094449 -0.042713 -0.031367 0.247886 -0.008792 
0.168692 -0.049252 -0.035917 0.249592 -0.013892 -0.004443 
-0.150151 0.045679 -0.079030 -0.032471 0.026238 -0.246508 
0.106377 -0.227804 -0.081417 0.000000 0.000000 -0.250018 
-0.007849 -0.114464 0.060930 0.000000 0.000000 0.250018 
0.204251 -0.246028 -0.051122 0.220798 0.117208 -0.004385 
-0.157935 -0.083480 -0.064333 -0.236624 -0.080611 -0.004466 
