1.490675657987594604e-02 -1.894297748804092407e-01 -1.649650186300277710e-02
-6.039805710315704346e-03 -1.113950908184051514e-01 -1.773405075073242188e-02
5.235031247138977051e-03 -1.515217423439025879e-01 1.302495785057544708e-02
-4.163905978202819824e-03 -1.676205396652221680e-01 -6.460044998675584793e-03
-7.445355877280235291e-03 -1.570610404014587402e-01 1.270522177219390869e-02
-1.489076763391494751e-02 -1.364544034004211426e-01 -2.624183893203735352e-02
-1.401033252477645874e-02 -1.985600590705871582e-01 4.144452512264251709e-03
5.672959983348846436e-02 -1.875078678131103516e-01 -1.936907693743705750e-02
-2.529424428939819336e-02 -1.949252188205718994e-01 3.388062119483947754e-02
2.092148363590240479e-02 -1.330732405185699463e-01 1.631458103656768799e-02
6.064431369304656982e-02 -1.769183874130249023e-01 8.144564926624298096e-03
-2.316907048225402832e-02 -1.563424468040466309e-01 9.357313392683863640e-04
-2.523044496774673462e-02 -1.766315102577209473e-01 -7.652640342712402344e-04
7.084831595420837402e-03 -1.514479070901870728e-01 1.646727323532104492e-03
-1.711767911911010742e-02 -1.376889050006866455e-01 -2.973040938377380371e-02
5.391202867031097412e-04 -1.603605598211288452e-01 8.224278688430786133e-03
4.840606451034545898e-02 -1.381898522377014160e-01 1.841933280229568481e-02
3.225263208150863647e-03 -7.435899972915649414e-02 2.219717577099800110e-02
3.060567378997802734e-02 -1.497465670108795166e-01 -3.471504151821136475e-02
3.269684314727783203e-02 -1.327047049999237061e-01 2.298975735902786255e-02
9.876070544123649597e-03 -1.327891349792480469e-01 -1.699342206120491028e-02
2.795791625976562500e-02 -1.618901044130325317e-01 1.172700151801109314e-02
-4.541291296482086182e-02 -1.350065767765045166e-01 -1.892641186714172363e-02
-1.234547048807144165e-02 -2.044929116964340210e-01 -4.776378720998764038e-02
9.881973266601562500e-03 -1.739070266485214233e-01 3.071589767932891846e-02
-1.899357140064239502e-02 -1.517430543899536133e-01 -5.403073504567146301e-03
4.418851435184478760e-02 -1.573348045349121094e-01 1.917285099625587463e-02
-1.231066882610321045e-03 -1.699550747871398926e-01 -1.897799968719482422e-02
6.348701566457748413e-02 -1.566818654537200928e-01 -2.652637660503387451e-03
1.533432304859161377e-02 -1.591962277889251709e-01 -1.454812008887529373e-03
-3.734107315540313721e-02 -6.526400148868560791e-02 5.248241126537322998e-03
-3.698271512985229492e-02 -1.742353737354278564e-01 -2.413760870695114136e-02
-2.524518966674804688e-02 -1.457075625658035278e-01 1.659612543880939484e-02
4.617050290107727051e-02 -1.863603889942169189e-01 -7.979881018400192261e-03
4.024799168109893799e-02 -2.041499912738800049e-01 -1.128319650888442993e-02
4.455596208572387695e-03 -1.449409723281860352e-01 2.794516831636428833e-02
-4.904329776763916016e-02 -2.269510626792907715e-01 -1.037576049566268921e-02
1.496016234159469604e-02 -2.162001579999923706e-01 2.061724662780761719e-03
3.078088164329528809e-03 -1.549891233444213867e-01 3.627182915806770325e-03
-2.261591702699661255e-02 -1.392722576856613159e-01 -1.513271033763885498e-02
-1.748295128345489502e-02 -1.368819177150726318e-01 -3.876081854104995728e-02
7.753223180770874023e-04 -1.750447005033493042e-01 6.083540618419647217e-03
-4.163664951920509338e-02 -2.115406394004821777e-01 2.915246039628982544e-02
3.280213475227355957e-02 -1.684194505214691162e-01 -1.152939349412918091e-02
2.280113101005554199e-02 -1.248207986354827881e-01 3.842054633423686028e-03
4.709517583250999451e-02 -1.878390908241271973e-01 -1.273406110703945160e-02
-4.278644919395446777e-03 -1.583823561668395996e-01 2.836465835571289062e-02
-8.555904030799865723e-03 -1.393511444330215454e-01 2.002233639359474182e-02
-1.535336673259735107e-02 -1.132477223873138428e-01 2.818949520587921143e-02
-3.255950286984443665e-03 -9.372298419475555420e-02 -3.605744987726211548e-02
-3.682494163513183594e-02 -1.769592463970184326e-01 -4.975353926420211792e-02
1.184064894914627075e-03 -1.033348292112350464e-01 1.220053061842918396e-03
-2.441376447677612305e-02 -1.734706908464431763e-01 1.914381980895996094e-02
4.872009158134460449e-03 -1.529589742422103882e-01 2.071877941489219666e-02
9.809345006942749023e-03 -1.954290717840194702e-01 -3.019461035728454590e-02
-3.519225120544433594e-02 -1.857953965663909912e-01 1.195623725652694702e-02
-8.493015542626380920e-03 -1.158718466758728027e-01 7.876828312873840332e-04
4.171559587121009827e-03 -1.073000133037567139e-01 2.059177309274673462e-02
6.458237767219543457e-03 -1.525157690048217773e-01 -4.663724452257156372e-03
2.029068768024444580e-02 -2.024403512477874756e-01 1.240082085132598877e-02
4.209980368614196777e-03 -1.363971531391143799e-01 -3.989607840776443481e-02
2.115210890769958496e-02 -1.172726154327392578e-01 2.945914492011070251e-02
-5.215108394622802734e-04 -1.242504417896270752e-01 -3.133611381053924561e-02
-6.914027035236358643e-03 -1.970966905355453491e-01 -1.939252018928527832e-02
-3.148967027664184570e-02 -1.813347488641738892e-01 -1.670074462890625000e-02
-3.014240413904190063e-03 -6.979176402091979980e-02 2.642583101987838745e-02
-1.247100532054901123e-03 -1.512691229581832886e-01 -6.717920303344726562e-03
1.269972696900367737e-02 -1.577898859977722168e-01 1.937773823738098145e-02
1.333117485046386719e-02 -1.332174092531204224e-01 -1.881519146263599396e-02
8.258718997240066528e-03 -1.305723488330841064e-01 2.330859191715717316e-02
1.721150428056716919e-02 -1.926491260528564453e-01 -1.134742051362991333e-02
2.098998427391052246e-02 -1.756930202245712280e-01 5.972370505332946777e-03
-9.631317108869552612e-03 -5.574595928192138672e-02 2.737165614962577820e-02
2.541017532348632812e-02 -2.133981585502624512e-01 -9.623862802982330322e-03
1.846849173307418823e-02 -9.107092022895812988e-02 1.897615939378738403e-02
1.376639306545257568e-02 -1.459924578666687012e-01 -5.362369120121002197e-03
-2.587518282234668732e-02 -1.008325815200805664e-01 2.283804118633270264e-02
2.571916580200195312e-02 -1.855497360229492188e-01 -5.782824009656906128e-03
4.822669923305511475e-02 -6.397131085395812988e-02 -1.089267153292894363e-02
3.105090558528900146e-02 -1.861710548400878906e-01 -2.059360593557357788e-02
-4.475654661655426025e-02 -1.618269681930541992e-01 1.716762781143188477e-03
1.370724290609359741e-02 -1.990216225385665894e-01 5.552701652050018311e-03
2.905157580971717834e-02 -1.901606619358062744e-01 -5.763031542301177979e-03
2.188077569007873535e-02 -1.560391187667846680e-01 6.693469360470771790e-03
4.359394311904907227e-03 -2.131133675575256348e-01 -8.711882866919040680e-03
3.101291507482528687e-02 -2.019909322261810303e-01 -5.854927003383636475e-03
-2.344555407762527466e-02 -8.631435036659240723e-02 4.009537398815155029e-03
-2.604909241199493408e-03 -1.759770363569259644e-01 -8.724242448806762695e-03
8.282363414764404297e-04 -1.781280934810638428e-01 1.367355510592460632e-02
-2.098046243190765381e-02 -1.480107605457305908e-01 -8.569698780775070190e-03
5.196790210902690887e-03 -1.216376572847366333e-01 -2.958964556455612183e-03
-8.554086089134216309e-03 -1.814336776733398438e-01 -1.018712669610977173e-02
3.485625982284545898e-02 -2.169232964515686035e-01 1.179523766040802002e-02
-1.527985930442810059e-02 -2.447107434272766113e-01 -1.670194789767265320e-02
1.613160967826843262e-02 -1.962702721357345581e-01 1.661887019872665405e-02
-2.959921956062316895e-02 -1.841370612382888794e-01 -8.852586150169372559e-03
2.951929718255996704e-02 -1.335887908935546875e-01 -1.326750218868255615e-02
-9.812146425247192383e-03 -1.428872197866439819e-01 2.012511342763900757e-02
-2.024186030030250549e-02 -7.985895872116088867e-02 3.164771199226379395e-02
-1.086331903934478760e-02 -3.999742865562438965e-02 3.969369828701019287e-02
-1.029605418443679810e-02 -2.261308878660202026e-01 8.907333016395568848e-03
4.180309828370809555e-03 -1.263002753257751465e-01 -7.218487560749053955e-03
-1.965404301881790161e-02 -2.066681385040283203e-01 -3.617177158594131470e-02
9.231887757778167725e-03 -1.636754870414733887e-01 -9.734235703945159912e-03
-3.279939293861389160e-02 -1.433094441890716553e-01 4.500980675220489502e-02
-2.405137196183204651e-02 -5.254709720611572266e-02 2.230893075466156006e-02
-3.234446048736572266e-04 -1.503076851367950439e-01 -1.872179657220840454e-02
-2.124978601932525635e-02 -1.901625841856002808e-01 -1.051088422536849976e-02
4.426330327987670898e-03 -1.511356234550476074e-01 -8.189991116523742676e-03
3.900750353932380676e-02 -1.954926252365112305e-01 -5.293063819408416748e-03
-5.064543336629867554e-02 -1.408555507659912109e-01 -1.230791956186294556e-02
6.505474448204040527e-05 -1.091660857200622559e-01 -1.402194425463676453e-02
-2.460298500955104828e-02 -1.107144951820373535e-01 -2.493206877261400223e-03
1.885186135768890381e-02 -2.085182070732116699e-01 9.716182947158813477e-03
8.532609790563583374e-03 -9.848582744598388672e-02 1.718299090862274170e-02
-5.128152668476104736e-03 -6.045860052108764648e-02 2.229595556855201721e-02
1.229114830493927002e-02 -7.512052357196807861e-02 1.788933575153350830e-02
-8.281521499156951904e-03 -1.438551694154739380e-01 -2.070367336273193359e-04
1.677962765097618103e-02 -1.239372193813323975e-01 -2.602189779281616211e-04
-1.696445047855377197e-02 -1.489264965057373047e-01 -8.161984384059906006e-03
-1.300307642668485641e-02 -1.981624662876129150e-01 -4.619300365447998047e-03
-2.970795333385467529e-02 -9.672564268112182617e-02 -1.796042174100875854e-02
-1.854769885540008545e-03 -1.472614407539367676e-01 1.594842970371246338e-02
-2.980731427669525146e-02 -1.921567916870117188e-01 -7.893301546573638916e-03
-1.630067825317382812e-02 -1.852190196514129639e-01 3.988967463374137878e-02
-2.379745990037918091e-02 -1.656093001365661621e-01 -3.753510862588882446e-02
3.002682328224182129e-02 -1.648097038269042969e-01 -7.598668336868286133e-03
3.057569265365600586e-04 -1.748592853546142578e-01 -1.284735277295112610e-02
-2.485452219843864441e-02 -7.271027565002441406e-02 1.830178499221801758e-02
3.481898456811904907e-03 -1.499030143022537231e-01 -1.723811030387878418e-02
-1.257945597171783447e-02 -1.047612428665161133e-01 -3.295698389410972595e-02
-1.823970675468444824e-02 -1.293941140174865723e-01 3.157860785722732544e-02
-2.110658586025238037e-02 -1.044230163097381592e-01 3.211084753274917603e-02
-2.453841269016265869e-02 -1.566146910190582275e-01 2.248728647828102112e-02
1.393558457493782043e-02 -5.574923753738403320e-02 2.305521816015243530e-02
-1.610715314745903015e-02 -8.796757459640502930e-02 3.150133788585662842e-02
-1.889072358608245850e-03 -1.949214637279510498e-01 -4.995696246623992920e-03
-4.277676343917846680e-02 -1.586112231016159058e-01 -2.993222698569297791e-02
2.187732234597206116e-02 -1.879930496215820312e-01 -1.291983574628829956e-02
-5.671232938766479492e-03 -2.194202542304992676e-01 -1.209303736686706543e-02
-3.863275051116943359e-04 -1.731618791818618774e-01 -6.175160408020019531e-03
8.465692400932312012e-03 -1.520499736070632935e-01 1.517679542303085327e-02
-1.122727245092391968e-02 -2.335450649261474609e-01 1.543334499001502991e-02
-1.440921425819396973e-02 -1.486431360244750977e-01 -3.249434754252433777e-03
7.124688476324081421e-03 -1.413403749465942383e-01 -2.051735296845436096e-02
2.518326044082641602e-03 -1.757542192935943604e-01 -2.715260162949562073e-02
-2.401825040578842163e-02 -1.385772079229354858e-01 8.245341479778289795e-03
-1.199479401111602783e-02 -1.690392643213272095e-01 -1.408430933952331543e-02
1.070617139339447021e-02 -2.062092721462249756e-01 -1.307578384876251221e-02
1.657679677009582520e-03 -1.797601282596588135e-01 -1.033066958189010620e-02
-4.242054373025894165e-02 -1.995246857404708862e-01 3.766389191150665283e-02
2.647063136100769043e-02 -8.966711163520812988e-02 -1.568423956632614136e-02
-2.722670137882232666e-02 -1.892983615398406982e-01 -1.513570547103881836e-02
-3.553414344787597656e-02 -1.444072425365447998e-01 -1.702308654785156250e-04
2.172529697418212891e-03 -1.575658321380615234e-01 1.825519278645515442e-02
3.878906369209289551e-02 -2.054761648178100586e-01 2.352714352309703827e-02
1.431826502084732056e-02 -1.913469433784484863e-01 5.923241376876831055e-03
-1.599922776222229004e-02 -1.862105727195739746e-01 -2.304944396018981934e-02
2.392511814832687378e-03 -1.803885698318481445e-01 4.264444112777709961e-03
-9.098922833800315857e-03 -4.763254523277282715e-02 1.662899740040302277e-02
-7.630065083503723145e-03 -1.911847293376922607e-01 -8.313857018947601318e-03
2.800084650516510010e-02 -1.355493664741516113e-01 2.782735973596572876e-02
-2.139912545680999756e-02 -1.654812097549438477e-01 -2.579957433044910431e-02
-1.658998802304267883e-02 -2.017150521278381348e-01 -9.989440441131591797e-04
4.038441926240921021e-03 -1.839733719825744629e-01 -1.591809093952178955e-03
-2.446094527840614319e-02 -1.950284242630004883e-01 -9.093888103961944580e-03
-2.845138311386108398e-02 -1.238470897078514099e-01 -6.332211196422576904e-03
-9.644761681556701660e-03 -1.304042637348175049e-01 -3.728074580430984497e-02
-6.657540798187255859e-03 -1.489365845918655396e-01 5.227729678153991699e-03
-1.084397733211517334e-02 -1.611457765102386475e-01 3.877166658639907837e-02
-3.515771776437759399e-02 -1.966346800327301025e-01 -2.581740170717239380e-02
1.217582449316978455e-02 -1.208143532276153564e-01 -2.175227552652359009e-02
-5.949589610099792480e-02 -1.812235713005065918e-01 -2.186909317970275879e-02
-1.595392823219299316e-04 -2.086465209722518921e-01 9.423941373825073242e-03
2.070436254143714905e-02 -1.302170753479003906e-01 -1.423515379428863525e-03
-2.261409908533096313e-02 -1.792674362659454346e-01 -2.894794940948486328e-02
-1.545108854770660400e-02 -1.610729396343231201e-01 -1.723887771368026733e-02
-5.911752581596374512e-03 -1.344887912273406982e-01 3.216810896992683411e-02
1.701448857784271240e-02 -1.599127948284149170e-01 -7.565543055534362793e-04
-1.265116408467292786e-02 -9.772612154483795166e-02 3.168731927871704102e-04
2.097015827894210815e-02 -2.344209551811218262e-01 8.362680673599243164e-03
-3.027832508087158203e-02 -1.172648966312408447e-01 1.087419129908084869e-02
-3.676712512969970703e-04 -1.517438143491744995e-01 -2.519775182008743286e-02
-9.491115808486938477e-03 -8.719611167907714844e-02 -2.290248870849609375e-02
-1.890132762491703033e-02 -1.259487569332122803e-01 3.047943115234375000e-03
6.360024213790893555e-03 -1.535313874483108521e-01 2.500981092453002930e-03
1.719206571578979492e-03 -1.842634379863739014e-01 -8.400727063417434692e-03
1.974210143089294434e-03 -1.707545816898345947e-01 -9.051674976944923401e-03
3.417804837226867676e-03 -1.794290542602539062e-01 -1.799394376575946808e-02
-2.137914299964904785e-03 -1.437698602676391602e-01 1.533123105764389038e-02
-2.227124571800231934e-02 -1.316060274839401245e-01 -1.067470293492078781e-02
1.392683386802673340e-02 -1.364556849002838135e-01 2.213779836893081665e-02
1.286295056343078613e-02 -2.066898345947265625e-01 -5.487181246280670166e-03
1.920783519744873047e-02 -1.775724142789840698e-01 -2.845823764801025391e-03
-2.205016836524009705e-02 -2.302284538745880127e-01 1.012099534273147583e-02
-4.163756966590881348e-03 -2.136103063821792603e-01 -1.532134413719177246e-02
-1.305121928453445435e-02 -1.945625543594360352e-01 -2.077275514602661133e-02
-3.199338912963867188e-03 -1.719356775283813477e-01 2.077258378267288208e-02
2.040063962340354919e-02 -1.110420227050781250e-01 2.773358672857284546e-02
1.650844514369964600e-02 -1.475965976715087891e-01 -1.007419452071189880e-02
-2.957025170326232910e-02 -1.158330142498016357e-01 1.235134154558181763e-02
1.461665332317352295e-02 -1.327324658632278442e-01 2.473894506692886353e-02
5.715884268283843994e-03 -1.875504553318023682e-01 7.459968328475952148e-04
-4.212483763694763184e-02 -2.505987882614135742e-01 -2.139694988727569580e-02
-2.171012759208679199e-02 -1.410138905048370361e-01 1.462242193520069122e-02
1.242624223232269287e-02 -1.243085265159606934e-01 -4.730246961116790771e-03
1.253879070281982422e-02 -1.555117666721343994e-01 3.045128285884857178e-02
-3.149615973234176636e-02 -6.675434112548828125e-02 2.477520704269409180e-02
1.481325551867485046e-02 -1.832771301269531250e-01 -4.490388557314872742e-03
-1.939939334988594055e-03 -2.099235951900482178e-01 -8.091531693935394287e-03
-9.300589561462402344e-03 -2.048199921846389771e-01 -1.375261694192886353e-02
2.918250858783721924e-02 -1.955493092536926270e-01 1.711157895624637604e-02
1.568408310413360596e-02 -1.766867935657501221e-01 9.816862642765045166e-03
9.439006447792053223e-03 -1.703714728355407715e-01 3.993324935436248779e-02
-2.166524529457092285e-03 -1.290102750062942505e-01 2.731384336948394775e-02
-7.881611585617065430e-03 -1.182678192853927612e-01 1.287344098091125488e-02
7.046446204185485840e-03 -2.152344435453414917e-01 -7.992237806320190430e-05
-9.931907057762145996e-03 -1.408289074897766113e-01 2.091696858406066895e-02
1.815234124660491943e-02 -1.308454126119613647e-01 -1.118663698434829712e-02
-2.013373374938964844e-02 -1.058927997946739197e-01 -1.579170674085617065e-02
-2.707272768020629883e-03 -1.717393100261688232e-01 -2.195827662944793701e-02
7.697224617004394531e-03 -1.942595988512039185e-01 -1.738257706165313721e-02
-4.427105188369750977e-03 -1.707878112792968750e-01 -6.551623344421386719e-03
-2.148409374058246613e-02 -1.179221868515014648e-01 -1.151889562606811523e-02
4.524403065443038940e-02 -2.082169353961944580e-01 8.425898849964141846e-04
2.515673637390136719e-03 -1.630695164203643799e-01 -1.349723339080810547e-02
2.434414625167846680e-02 -1.205068156123161316e-01 -2.254827320575714111e-02
1.825056225061416626e-02 -9.915855526924133301e-02 -1.994483172893524170e-03
4.362584277987480164e-02 -1.003315374255180359e-01 -1.973129808902740479e-03
2.244386076927185059e-02 -1.718710511922836304e-01 -6.841395050287246704e-03
-9.580776095390319824e-04 -2.904310822486877441e-02 -2.666714787483215332e-02
5.457639694213867188e-03 -1.320231556892395020e-01 -2.845846116542816162e-03
1.531372964382171631e-02 -1.195175051689147949e-01 -1.750095561146736145e-02
-9.035706520080566406e-03 -1.420587450265884399e-01 -6.723254919052124023e-04
-1.644511893391609192e-02 -8.848472684621810913e-02 1.738100498914718628e-02
-5.428530275821685791e-04 -1.797232925891876221e-01 -1.906485110521316528e-02
2.766783162951469421e-02 -1.708837747573852539e-01 -1.003606617450714111e-02
2.220119535923004150e-02 -1.874586641788482666e-01 -1.402804255485534668e-02
-4.414100199937820435e-03 -1.677851676940917969e-01 -4.203565046191215515e-02
-8.269071578979492188e-03 -1.596652567386627197e-01 4.376936331391334534e-02
-1.707804203033447266e-02 -1.554971337318420410e-01 6.531216204166412354e-03
1.265780627727508545e-02 -1.349319964647293091e-01 6.015072017908096313e-02
-4.085823893547058105e-03 -1.243171691894531250e-01 -9.296514093875885010e-03
1.016691327095031738e-02 -2.329295575618743896e-01 2.170418947935104370e-02
4.007730633020401001e-03 -2.066912949085235596e-01 2.372795343399047852e-02
5.261972546577453613e-02 -1.018004715442657471e-01 7.848531007766723633e-03
-1.079992949962615967e-02 -1.187218204140663147e-01 2.825305610895156860e-02
1.182883977890014648e-02 -7.608518004417419434e-02 3.111016750335693359e-02
-3.740701079368591309e-02 -2.355253696441650391e-01 -2.696834132075309753e-02
4.708955064415931702e-03 -1.281872540712356567e-01 2.273549884557723999e-02
1.337431371212005615e-02 -1.293716728687286377e-01 -1.755136996507644653e-03
1.419275254011154175e-02 -1.390331834554672241e-01 -2.210778743028640747e-02
-3.093034029006958008e-04 -2.139002978801727295e-01 8.263543248176574707e-03
1.124291867017745972e-02 -1.011655628681182861e-01 -2.609387040138244629e-02
-1.294811628758907318e-02 -1.413546949625015259e-01 -3.117217868566513062e-02
1.521885395050048828e-02 -1.899528205394744873e-01 -3.325901925563812256e-03
-3.090460598468780518e-02 -2.190980762243270874e-01 -3.348729386925697327e-02
9.557329118251800537e-03 -1.412753909826278687e-01 -2.165380120277404785e-02
-3.284302353858947754e-02 -1.933161169290542603e-01 -9.973339736461639404e-03
-9.074360132217407227e-03 -2.096668928861618042e-01 -3.183846175670623779e-02
-7.891006767749786377e-03 -8.430720865726470947e-02 -1.985813677310943604e-02
-2.252938970923423767e-02 -5.221003293991088867e-02 2.189425937831401825e-02
-4.006808251142501831e-02 -1.564508974552154541e-01 1.399506628513336182e-02
2.548237144947052002e-02 -1.780678927898406982e-01 9.872131049633026123e-03
2.814993262290954590e-02 -1.478167772293090820e-01 -3.095567226409912109e-03
-2.051653712987899780e-02 -1.047144979238510132e-01 -2.016181498765945435e-02
-3.127727285027503967e-02 -6.253841519355773926e-02 2.763505280017852783e-02
-2.347006648778915405e-02 -2.315627932548522949e-01 8.882366120815277100e-03
1.382071617990732193e-02 -2.557213604450225830e-01 -2.617610245943069458e-02
-2.656773850321769714e-02 -1.429573595523834229e-01 1.134853810071945190e-02
2.818601205945014954e-02 -9.409701824188232422e-02 -2.059774100780487061e-02
2.890798496082425117e-04 -1.083848178386688232e-01 1.174433529376983643e-02
2.295194566249847412e-02 -1.688187271356582642e-01 5.978018045425415039e-03
-1.197862438857555389e-04 -1.045104265213012695e-01 4.261508584022521973e-04
1.039841771125793457e-02 -1.263147443532943726e-01 -4.236561059951782227e-02
3.409622609615325928e-02 -2.153101563453674316e-01 1.287081092596054077e-02
-1.454682648181915283e-02 -2.109567821025848389e-01 -5.500078201293945312e-03
-9.567350149154663086e-03 -1.282410770654678345e-01 8.869759738445281982e-03
-3.885371983051300049e-02 -1.681119501590728760e-01 -2.356197685003280640e-02
-8.780702948570251465e-03 -1.196797192096710205e-01 -6.891928613185882568e-03
-8.935637772083282471e-03 -1.883953511714935303e-01 -1.649090647697448730e-02
-4.007264971733093262e-03 -1.130697727203369141e-01 -2.991521731019020081e-03
1.684927940368652344e-02 -1.076807677745819092e-01 -4.096182435750961304e-02
-8.996045216917991638e-03 -1.233047842979431152e-01 2.269804477691650391e-03
2.319475263357162476e-02 -1.705026328563690186e-01 -1.172268390655517578e-02
-3.477573394775390625e-02 -1.112585216760635376e-01 -6.989175453782081604e-04
-1.464043557643890381e-02 -2.224633395671844482e-01 -7.705330848693847656e-03
-3.911409527063369751e-02 -1.553777158260345459e-01 -1.388433575630187988e-02
-1.139802671968936920e-02 -8.618946373462677002e-02 -3.177279233932495117e-02
2.690006420016288757e-02 -2.048858553171157837e-01 8.394613862037658691e-03
-1.769229769706726074e-03 -1.080566197633743286e-01 8.152510970830917358e-02
-1.970383524894714355e-02 -1.640163809061050415e-01 -5.417101085186004639e-03
5.551814101636409760e-03 -7.540185749530792236e-02 -1.203589886426925659e-02
-1.791842281818389893e-02 -1.280082017183303833e-01 1.579312980175018311e-02
-4.251975566148757935e-03 -1.336221694946289062e-01 -3.728757053613662720e-02
6.159871816635131836e-03 -1.331330686807632446e-01 1.950215548276901245e-03
2.842793613672256470e-02 -8.325016498565673828e-02 1.217956095933914185e-02
-9.742379188537597656e-04 -1.873587369918823242e-01 -1.312337070703506470e-02
1.135697960853576660e-02 -1.203986406326293945e-01 7.648393511772155762e-04
-1.482702419161796570e-02 -1.390263438224792480e-01 -9.074918925762176514e-03
-6.166741251945495605e-03 -1.206046342849731445e-01 7.813051342964172363e-04
-1.151334680616855621e-02 -8.204108476638793945e-02 3.237424045801162720e-02
2.897709608078002930e-03 -1.248731836676597595e-01 -4.565708339214324951e-03
-5.270686745643615723e-02 -1.008438915014266968e-01 4.528855532407760620e-02
-1.556870341300964355e-02 -1.259074360132217407e-01 -8.235752582550048828e-03
-3.027347475290298462e-02 -1.563992053270339966e-01 -1.166214793920516968e-02
6.599886342883110046e-03 -9.818914532661437988e-02 1.294700801372528076e-02
-2.835874818265438080e-02 -1.083191484212875366e-01 3.356639761477708817e-03
3.033474087715148926e-03 -1.798097789287567139e-01 1.864360831677913666e-02
3.725031018257141113e-02 -1.745508015155792236e-01 -7.670503109693527222e-03
-3.220227360725402832e-02 -9.766165167093276978e-02 -1.707547903060913086e-02
2.459812164306640625e-02 -1.724792420864105225e-01 -1.272996887564659119e-02
-1.109183952212333679e-02 -1.210513412952423096e-01 -1.194085739552974701e-02
-2.362365648150444031e-02 -1.101130843162536621e-01 5.780927836894989014e-03
2.691676840186119080e-02 -1.649156361818313599e-01 2.298645675182342529e-03
1.540604978799819946e-02 -2.237541824579238892e-01 2.714097499847412109e-03
1.057389378547668457e-02 -1.716205775737762451e-01 1.857101917266845703e-03
1.204435527324676514e-02 -1.972889900207519531e-01 -3.632489219307899475e-02
-6.066501140594482422e-03 -1.066933274269104004e-01 -4.936158657073974609e-04
5.309857428073883057e-02 -9.938988089561462402e-02 -1.902201026678085327e-02
-2.294939383864402771e-02 -1.744070053100585938e-01 -1.730649918317794800e-02
2.353450655937194824e-02 -1.597370356321334839e-01 7.927812635898590088e-03
-1.888453029096126556e-02 -2.212037742137908936e-01 -4.700718075037002563e-02
1.563523337244987488e-02 -1.046819090843200684e-01 1.707730814814567566e-02
-3.203302621841430664e-03 -1.801495552062988281e-01 1.406691223382949829e-02
5.803019739687442780e-03 -9.834784269332885742e-02 1.427493989467620850e-02
1.662014052271842957e-03 -2.014683783054351807e-01 -4.040997475385665894e-02
-3.648810833692550659e-02 -1.603718698024749756e-01 -6.980821490287780762e-03
4.811063408851623535e-03 -1.060827076435089111e-01 4.500343650579452515e-02
3.715947270393371582e-03 -1.991861760616302490e-01 -1.990217342972755432e-02
-1.388594508171081543e-02 -1.819842308759689331e-01 -2.836734801530838013e-02
5.968783050775527954e-03 -1.007366403937339783e-01 -8.050225675106048584e-03
2.751152962446212769e-02 -2.017262279987335205e-01 1.679211854934692383e-03
-2.841187268495559692e-02 -1.614370048046112061e-01 -6.088331341743469238e-03
7.297009229660034180e-03 -1.410843431949615479e-01 2.496183291077613831e-02
-2.099518850445747375e-02 -9.649819135665893555e-02 3.030561655759811401e-02
1.218494493514299393e-02 -1.598310768604278564e-01 2.556905150413513184e-02
-2.413248643279075623e-03 -1.162382215261459351e-01 5.132099613547325134e-03
-1.488220505416393280e-02 -7.355132699012756348e-02 2.583145350217819214e-02
-1.462073996663093567e-02 -4.272058606147766113e-02 3.735028952360153198e-02
2.558221295475959778e-02 -1.985846757888793945e-01 -1.694069057703018188e-02
8.916288614273071289e-03 -1.777386367321014404e-01 -1.740098744630813599e-02
-1.551119051873683929e-02 -2.348130494356155396e-01 -1.218486577272415161e-02
3.909498453140258789e-03 -1.526845395565032959e-01 1.433467119932174683e-02
-5.591469258069992065e-02 -1.370977163314819336e-01 -2.410691976547241211e-02
3.339387476444244385e-04 -1.402206718921661377e-01 -2.263867110013961792e-02
3.405153751373291016e-03 -1.915617436170578003e-01 3.168433904647827148e-02
-2.197372168302536011e-02 -2.191769033670425415e-01 -9.018607437610626221e-03
1.783357933163642883e-03 -1.517873704433441162e-01 -7.340192794799804688e-03
-1.764427870512008667e-02 -1.700473427772521973e-01 -2.597407251596450806e-02
1.285703480243682861e-02 -1.214142292737960815e-01 1.271921023726463318e-02
-3.403111547231674194e-02 -7.754352688789367676e-02 -1.256664097309112549e-02
3.254957497119903564e-02 -2.023244202136993408e-01 -1.273807138204574585e-02
3.070518374443054199e-03 -1.473545283079147339e-01 6.034232676029205322e-03
1.345809176564216614e-02 -1.916508823633193970e-01 1.210431009531021118e-02
-5.669947713613510132e-03 -8.764958381652832031e-02 1.788926869630813599e-02
1.510520279407501221e-02 -1.395286470651626587e-01 -5.025347694754600525e-03
-1.942703127861022949e-02 -1.904626041650772095e-01 2.896666526794433594e-02
-1.021831110119819641e-02 -7.504191994667053223e-02 3.207162767648696899e-02
4.774993285536766052e-03 -1.548864543437957764e-01 -1.088943332433700562e-02
5.806531012058258057e-02 -1.406953334808349609e-01 -2.330936491489410400e-03
-2.152043581008911133e-02 -1.254640966653823853e-01 1.411989517509937286e-02
-8.961558341979980469e-04 -1.514850258827209473e-01 4.022832959890365601e-02
3.084935247898101807e-02 -1.960119605064392090e-01 4.616179317235946655e-02
-1.418596133589744568e-03 -1.147448420524597168e-01 4.554878920316696167e-02
1.793310046195983887e-03 -1.538806408643722534e-01 2.162932604551315308e-02
2.984988689422607422e-02 -2.020964473485946655e-01 -2.845207601785659790e-02
-1.235537603497505188e-02 -3.863579034805297852e-02 1.557959057390689850e-02
1.713097840547561646e-02 -1.676522791385650635e-01 -4.069030284881591797e-03
5.626454949378967285e-03 -1.205375045537948608e-01 1.440279185771942139e-03
-1.204557716846466064e-02 -2.907378077507019043e-01 -2.150630950927734375e-02
1.081828773021697998e-02 -2.225042730569839478e-01 -1.069888472557067871e-02
1.868669688701629639e-02 -2.100357711315155029e-01 1.782850176095962524e-02
-2.218814380466938019e-02 -1.222690716385841370e-01 4.128679633140563965e-02
1.427273452281951904e-02 -1.617226600646972656e-01 -1.424664538353681564e-02
-1.738828420639038086e-02 -9.458059072494506836e-02 -3.516852855682373047e-03
2.312097698450088501e-02 -2.105814516544342041e-01 -8.874848484992980957e-03
-2.166561037302017212e-02 -6.482517719268798828e-02 -5.619756877422332764e-03
8.630795404314994812e-03 -9.555503726005554199e-02 1.586898043751716614e-02
2.729505673050880432e-02 -1.257089227437973022e-01 1.704126596450805664e-02
3.864769637584686279e-02 -1.237414479255676270e-01 -2.322417497634887695e-02
-5.649313330650329590e-03 -1.493790745735168457e-01 2.259814739227294922e-02
7.630923762917518616e-03 -1.007567346096038818e-01 2.162799984216690063e-02
-2.804560214281082153e-02 -1.398214846849441528e-01 -3.429866582155227661e-02
9.400114417076110840e-03 -2.262345254421234131e-01 -4.275520890951156616e-02
1.301278173923492432e-02 -7.548296451568603516e-02 -5.278363823890686035e-04
-3.778728842735290527e-02 -2.214693129062652588e-01 -1.364334672689437866e-02
3.156490623950958252e-02 -1.443777084350585938e-01 -4.395640268921852112e-02
-1.748646050691604614e-02 -1.733286380767822266e-01 -2.523718029260635376e-02
2.208104729652404785e-02 -1.392824053764343262e-01 4.452772438526153564e-03
4.416184872388839722e-02 -1.595356762409210205e-01 -6.825104355812072754e-03
-1.374645344913005829e-02 -1.085835322737693787e-01 -3.192725777626037598e-02
2.359087765216827393e-02 -1.012278273701667786e-01 1.843621581792831421e-02
1.873464137315750122e-02 -1.513233929872512817e-01 7.230147719383239746e-03
3.394255042076110840e-02 -1.698504984378814697e-01 1.976085081696510315e-02
1.436043530702590942e-02 -1.564614772796630859e-01 -1.945194602012634277e-02
3.090190887451171875e-02 -1.418045014142990112e-01 -2.506770193576812744e-03
2.371037751436233521e-02 -7.790961861610412598e-02 -9.046701714396476746e-03
-2.581903338432312012e-02 -1.949249505996704102e-01 -4.129081964492797852e-03
-6.626777350902557373e-03 -1.524756699800491333e-01 -3.423407673835754395e-03
5.671564489603042603e-03 -1.823611259460449219e-01 2.970732748508453369e-03
-2.761878818273544312e-02 -1.611351966857910156e-01 8.337616920471191406e-03
-2.457702159881591797e-02 -1.784729510545730591e-01 1.096128672361373901e-02
-1.967282406985759735e-02 -1.162515729665756226e-01 9.000584483146667480e-03
-1.834899187088012695e-03 -2.093021869659423828e-01 1.530240476131439209e-02
2.582829445600509644e-02 -1.793002188205718994e-01 -8.072331547737121582e-03
1.759564876556396484e-02 -1.143737435340881348e-01 1.400286704301834106e-02
2.810281515121459961e-02 -1.347555965185165405e-01 -3.676759451627731323e-02
-9.516023099422454834e-03 -1.021214276552200317e-01 2.803170680999755859e-02
-1.384688913822174072e-02 -1.853690445423126221e-01 2.350673079490661621e-03
7.050901651382446289e-03 -1.135587990283966064e-01 -1.133120059967041016e-02
-6.389252841472625732e-03 -2.007363736629486084e-01 4.121747612953186035e-02
6.064675748348236084e-03 -1.955448091030120850e-01 2.170930057764053345e-02
1.593875885009765625e-02 -1.692732870578765869e-01 -1.656512171030044556e-02
-2.168564498424530029e-02 -1.695239841938018799e-01 1.260896027088165283e-02
3.454823046922683716e-03 -1.172006428241729736e-01 -2.328399568796157837e-04
2.064846456050872803e-02 -1.147939935326576233e-01 4.464197903871536255e-03
-1.038493122905492783e-02 -1.126279532909393311e-01 3.415238857269287109e-02
-4.902020096778869629e-03 -1.614287197589874268e-01 -1.658374816179275513e-02
1.350939553231000900e-02 -2.408842444419860840e-01 -3.616707772016525269e-02
2.553571574389934540e-02 -1.047995984554290771e-01 -1.391369849443435669e-03
1.038392074406147003e-02 -9.777407348155975342e-02 -2.940304577350616455e-03
8.978072553873062134e-03 -1.915819942951202393e-01 -3.167834132909774780e-02
-4.061640053987503052e-02 -1.053356677293777466e-01 1.754592172801494598e-02
2.941409498453140259e-02 -1.308176964521408081e-01 -1.770981401205062866e-02
2.261256985366344452e-02 -1.032495498657226562e-01 -8.791413158178329468e-03
2.664468809962272644e-02 -1.530702114105224609e-01 -6.918385624885559082e-03
4.927955567836761475e-03 -2.069558501243591309e-01 -7.066018879413604736e-03
3.469198942184448242e-02 -1.767050027847290039e-01 -4.128158837556838989e-02
4.396918229758739471e-03 -2.202906161546707153e-01 -3.431876376271247864e-02
-2.880096435546875000e-03 -1.417204439640045166e-01 2.604378014802932739e-02
7.170587778091430664e-03 -1.452274024486541748e-01 4.572443664073944092e-03
4.968154430389404297e-02 -1.268026977777481079e-01 -2.443423867225646973e-02
7.794991135597229004e-03 -2.129197418689727783e-01 -2.908312529325485229e-02
-1.394909061491489410e-02 -1.284085959196090698e-01 -1.052881311625242233e-02
4.435628652572631836e-04 -2.440054416656494141e-01 -4.480145871639251709e-03
-8.370205760002136230e-03 -1.906600594520568848e-01 3.177035599946975708e-02
-3.461268544197082520e-02 -1.421945095062255859e-01 -1.502954214811325073e-02
3.084909729659557343e-02 -8.329673111438751221e-02 -2.039439976215362549e-02
-3.138403594493865967e-02 -1.619169265031814575e-01 2.267512679100036621e-02
9.462356567382812500e-03 -1.607586443424224854e-01 -1.684011891484260559e-03
-1.062329858541488647e-02 -1.114065349102020264e-01 -1.307073235511779785e-02
4.361084103584289551e-02 -1.459295600652694702e-01 2.089314162731170654e-02
-3.723480179905891418e-02 -1.612289547920227051e-01 -1.330984383821487427e-02
-4.167556762695312500e-03 -5.834984779357910156e-02 2.513196319341659546e-02
2.315386757254600525e-02 -1.241418197751045227e-01 4.233919084072113037e-03
6.791248917579650879e-03 -1.755076050758361816e-01 -3.511488437652587891e-03
-1.148499548435211182e-02 -1.574198305606842041e-01 -2.836854755878448486e-02
-2.565109729766845703e-02 -1.111464202404022217e-01 1.611731201410293579e-02
3.884822130203247070e-03 -2.093772888183593750e-01 -6.824553012847900391e-03
-4.309147596359252930e-03 -1.763800978660583496e-01 -2.068660035729408264e-02
2.321133017539978027e-02 -1.479125767946243286e-01 -7.577814161777496338e-03
-4.125092923641204834e-02 -1.761898100376129150e-01 2.183562517166137695e-02
-3.535440191626548767e-02 -1.181037425994873047e-01 -2.158290147781372070e-02
-1.266893744468688965e-02 -1.226239800453186035e-01 7.831603288650512695e-04
9.031251072883605957e-03 -1.769346594810485840e-01 -3.700666129589080811e-04
-1.700922846794128418e-03 -1.793279945850372314e-01 1.384437084197998047e-03
-2.041884511709213257e-02 -2.261964678764343262e-01 -1.328653842210769653e-02
8.081160485744476318e-03 -1.709392815828323364e-01 -1.068975776433944702e-02
-4.625663161277770996e-03 -1.393795311450958252e-01 -1.420140266418457031e-03
-1.556998491287231445e-02 -2.193532437086105347e-01 -1.165301352739334106e-02
1.483577489852905273e-02 -1.349447369575500488e-01 -1.335073448717594147e-02
-4.586622118949890137e-03 -5.367538332939147949e-02 1.767881214618682861e-02
-8.766919374465942383e-03 -1.396291553974151611e-01 8.169807493686676025e-03
1.135976240038871765e-02 -1.367332935333251953e-01 -2.118066325783729553e-02
1.039828080683946609e-02 -1.940234452486038208e-01 -2.032657712697982788e-02
-9.986475110054016113e-03 -1.503348797559738159e-01 -7.536660879850387573e-03
-2.359062433242797852e-03 -1.235975325107574463e-01 1.157737523317337036e-02
4.900306463241577148e-03 -1.818728893995285034e-01 7.825866341590881348e-04
1.638010889291763306e-02 -2.012559175491333008e-01 -3.954704105854034424e-02
-1.553004980087280273e-02 -1.433317661285400391e-01 -1.573733240365982056e-02
-1.943805813789367676e-02 -1.627300381660461426e-01 1.715122908353805542e-02
-3.986814618110656738e-02 -1.610778719186782837e-01 -2.476809173822402954e-02
1.277849078178405762e-02 -1.809602379798889160e-01 -1.116947084665298462e-02
1.351162791252136230e-03 -1.402465999126434326e-01 8.824827149510383606e-03
2.553699910640716553e-02 -2.072658240795135498e-01 5.274733901023864746e-02
3.189708292484283447e-02 -1.961809545755386353e-01 1.176141947507858276e-02
-2.287362515926361084e-02 -1.373748183250427246e-01 -2.161411009728908539e-02
1.002536714076995850e-02 -1.047625839710235596e-01 -2.445035427808761597e-02
1.374389231204986572e-02 -2.222107499837875366e-01 3.938868641853332520e-03
1.267227157950401306e-02 -1.187532246112823486e-01 -2.106910943984985352e-02
1.342417299747467041e-02 -6.017911434173583984e-02 2.906374633312225342e-03
1.454510446637868881e-02 -1.291411668062210083e-01 -1.460687071084976196e-02
1.930794119834899902e-02 -1.250554174184799194e-01 3.960624337196350098e-03
-7.044598460197448730e-03 -1.507012546062469482e-01 -3.776495903730392456e-02
-4.824556410312652588e-03 -9.493577480316162109e-02 -2.351659908890724182e-02
5.010664463043212891e-03 -1.863741278648376465e-01 -2.200357243418693542e-02
9.756594896316528320e-03 -1.198960095643997192e-01 -2.509790286421775818e-02
4.791970364749431610e-03 -1.055780649185180664e-01 2.493415772914886475e-02
1.113235205411911011e-02 -2.268971949815750122e-01 -2.742148935794830322e-03
-1.804201304912567139e-02 -1.635460704565048218e-01 1.108765602111816406e-02
1.197116822004318237e-02 -2.404207587242126465e-01 1.563940197229385376e-02
2.557086013257503510e-02 -1.053638458251953125e-01 -4.414990544319152832e-04
-3.999727964401245117e-02 -1.616064012050628662e-01 5.016893148422241211e-03
-1.203416287899017334e-02 -1.200570017099380493e-01 1.074469834566116333e-02
-1.482047140598297119e-03 -1.689158976078033447e-01 1.345267891883850098e-02
-5.741789937019348145e-04 -1.455710232257843018e-01 1.661464571952819824e-03
-3.620845079421997070e-02 -1.534967720508575439e-01 -1.570340618491172791e-02
4.274664819240570068e-02 -2.151822000741958618e-01 5.745734088122844696e-03
4.883438348770141602e-03 -1.356538385152816772e-01 2.225995063781738281e-02
-4.172257333993911743e-02 -1.381834000349044800e-01 6.800644099712371826e-03
1.657977700233459473e-04 -9.382879734039306641e-02 -1.093405019491910934e-02
-2.207604050636291504e-02 -1.497492492198944092e-01 1.710868813097476959e-02
-7.271766662597656250e-04 -1.980616748332977295e-01 -1.235895045101642609e-02
-1.933459192514419556e-02 -1.445161253213882446e-01 -1.577186584472656250e-02
-2.149019390344619751e-02 -2.128159850835800171e-01 -2.594821155071258545e-03
2.687591314315795898e-02 -1.463037878274917603e-01 -2.852871268987655640e-02
2.501961588859558105e-02 -1.326614320278167725e-01 -3.858761629089713097e-04
-2.503022551536560059e-03 -1.124646514654159546e-01 6.830342113971710205e-03
4.433691501617431641e-03 -1.674285233020782471e-01 -1.757550984621047974e-02
-2.561269700527191162e-02 -1.497333943843841553e-01 3.502137959003448486e-03
-2.803741395473480225e-02 -1.739663034677505493e-01 2.295756712555885315e-02
-1.994469203054904938e-02 -1.040018200874328613e-01 6.220914423465728760e-03
3.777289018034934998e-02 -1.094805896282196045e-01 -1.848332583904266357e-03
3.339359164237976074e-02 -1.836754381656646729e-01 -2.175277844071388245e-02
1.570779830217361450e-02 -1.305107921361923218e-01 3.547437489032745361e-02
1.586489379405975342e-02 -1.560339927673339844e-01 6.274975836277008057e-03
6.921060383319854736e-03 -1.829768121242523193e-01 -2.497160434722900391e-02
-1.675621420145034790e-02 -1.381190419197082520e-01 2.013652026653289795e-02
-1.140548288822174072e-02 -5.426517128944396973e-02 2.700624614953994751e-02
-1.332652568817138672e-02 -1.353760063648223877e-01 5.752723664045333862e-03
-5.005180835723876953e-03 -2.128093540668487549e-01 -1.954569667577743530e-02
4.105009138584136963e-04 -1.730633229017257690e-01 -1.417826861143112183e-02
1.576332747936248779e-02 -9.206897020339965820e-02 -7.127769291400909424e-03
-2.443394064903259277e-02 -1.182336285710334778e-01 -2.648025006055831909e-02
4.865840077400207520e-03 -1.249288022518157959e-01 -1.303012296557426453e-02
-3.402065858244895935e-02 -6.138759851455688477e-02 -2.335850521922111511e-02
-4.399647563695907593e-02 -1.649943590164184570e-01 -4.213005304336547852e-04
1.652391813695430756e-02 -1.383319050073623657e-01 1.378612220287322998e-02
-3.349984437227249146e-02 -2.387363761663436890e-01 1.095870137214660645e-02
-5.011721700429916382e-02 -1.914383172988891602e-01 1.472125202417373657e-02
-2.617965266108512878e-02 -1.115805804729461670e-01 -2.711682394146919250e-02
-2.838297188282012939e-02 -5.196693539619445801e-02 1.781609281897544861e-02
-1.748926937580108643e-02 -1.042320132255554199e-01 -9.868074208498001099e-03
8.007973432540893555e-03 -1.708462983369827271e-01 2.033117040991783142e-02
1.527005806565284729e-02 -8.771327137947082520e-02 1.833752915263175964e-02
8.351653814315795898e-04 -2.053483128547668457e-01 2.107995748519897461e-02
2.678973972797393799e-02 -1.372266411781311035e-01 1.749657094478607178e-03
1.064340770244598389e-02 -1.825247108936309814e-01 -1.539416611194610596e-03
-1.828484237194061279e-02 -1.635497510433197021e-01 1.390930451452732086e-02
-1.514262706041336060e-02 -1.377889811992645264e-01 4.248226433992385864e-02
-1.004944555461406708e-02 -9.276530146598815918e-02 4.331246018409729004e-03
4.641711711883544922e-06 -1.410193592309951782e-01 -1.511799544095993042e-02
1.942130923271179199e-02 -1.230924278497695923e-01 1.427132636308670044e-02
-1.209881808608770370e-02 -1.133400201797485352e-01 -2.429327927529811859e-02
1.977971941232681274e-02 -1.878315508365631104e-01 1.593856513500213623e-02
1.214940845966339111e-02 -2.009879499673843384e-01 1.304154098033905029e-02
-2.179317176342010498e-03 -1.450536847114562988e-01 -5.968332290649414062e-03
-1.794330775737762451e-03 -1.673144698143005371e-01 2.371124178171157837e-02
2.725047990679740906e-02 -2.207425087690353394e-01 5.031548440456390381e-03
2.294965088367462158e-04 -7.174512743949890137e-02 2.314236760139465332e-02
1.069341599941253662e-02 -1.990172713994979858e-01 6.087526679039001465e-03
1.461538672447204590e-02 -1.199193745851516724e-01 -2.308638393878936768e-02
-1.749152690172195435e-02 -5.119535326957702637e-02 3.114722669124603271e-02
-1.838745176792144775e-02 -7.788066565990447998e-02 -2.414768189191818237e-02
9.107971563935279846e-04 -1.562545597553253174e-01 2.264263480901718140e-02
-1.235943939536809921e-02 -1.032021045684814453e-01 3.006078302860260010e-02
-1.499040424823760986e-02 -6.049335002899169922e-02 -4.321247339248657227e-03
-3.606736660003662109e-03 -1.035708487033843994e-01 8.878409862518310547e-04
4.942812025547027588e-03 -1.133467555046081543e-01 4.366228729486465454e-02
2.966865152120590210e-02 -1.050426661968231201e-01 1.272195950150489807e-02
9.398225694894790649e-03 -1.823922395706176758e-01 1.054442673921585083e-02
-2.869665622711181641e-04 -9.371969103813171387e-02 2.064859122037887573e-02
-2.832144685089588165e-02 -1.827785372734069824e-01 -2.964240312576293945e-02
6.629392504692077637e-03 -7.062058895826339722e-02 9.153224527835845947e-03
-2.489318698644638062e-02 -1.436054408550262451e-01 -2.189167588949203491e-02
-1.541287451982498169e-02 -9.375485777854919434e-02 1.734419539570808411e-02
-9.559117257595062256e-03 -1.107693612575531006e-01 3.508316725492477417e-02
-1.670570671558380127e-02 -9.448160976171493530e-02 -3.710655495524406433e-02
-1.144148409366607666e-03 -1.496456712484359741e-01 1.619301736354827881e-03
-1.816056668758392334e-02 -1.706213057041168213e-01 -2.271080017089843750e-02
-4.706829786300659180e-04 -1.579236090183258057e-01 -3.054762259125709534e-02
-4.226628690958023071e-03 -1.137267351150512695e-01 -5.484312772750854492e-03
-1.832187175750732422e-03 -1.685951799154281616e-01 -1.238245144486427307e-02
3.194241598248481750e-02 -1.777347326278686523e-01 9.283386170864105225e-03
-1.611993089318275452e-02 -1.076895296573638916e-01 3.390443325042724609e-02
-1.095093786716461182e-03 -7.367107272148132324e-02 3.157435357570648193e-02
-9.311407804489135742e-03 -6.332424283027648926e-02 -1.069721579551696777e-02
-9.507900103926658630e-03 -2.511706352233886719e-01 -1.335747539997100830e-02
1.397423446178436279e-02 -2.315035760402679443e-01 -3.411002457141876221e-03
-2.622207254171371460e-02 -1.738770455121994019e-01 -3.248644620180130005e-02
2.073667943477630615e-02 -1.950995326042175293e-01 -3.975726664066314697e-03
2.561582624912261963e-02 -1.558051705360412598e-01 -7.645860314369201660e-03
4.763710498809814453e-02 -1.066822931170463562e-01 -4.705883562564849854e-03
-1.346699893474578857e-02 -1.649336814880371094e-01 -9.637393057346343994e-03
-2.985099516808986664e-02 -7.806639373302459717e-02 -1.154812425374984741e-02
4.821047186851501465e-04 -1.589337885379791260e-01 -2.070809155702590942e-02
-1.605091989040374756e-02 -1.027635633945465088e-01 -1.405407022684812546e-02
2.211128920316696167e-02 -1.505619287490844727e-01 1.217807829380035400e-02
-3.084391355514526367e-03 -2.128152847290039062e-01 -1.482628285884857178e-03
7.216991484165191650e-02 -2.592479288578033447e-01 -3.692716360092163086e-03
3.755918145179748535e-02 -1.103792935609817505e-01 -1.291528344154357910e-03
1.411905139684677124e-02 -1.307119727134704590e-01 -8.716605603694915771e-03
4.409795999526977539e-02 -1.361359953880310059e-01 -8.190929889678955078e-03
1.834757626056671143e-02 -2.079143673181533813e-01 1.343139261007308960e-02
-1.972070336341857910e-02 -2.441528439521789551e-01 -1.474713534116744995e-02
-1.727999746799468994e-02 -1.115677356719970703e-01 -5.812701769173145294e-03
2.890750765800476074e-03 -1.182720065116882324e-01 2.260314300656318665e-02
-3.595184534788131714e-03 -9.129590541124343872e-02 -2.794065326452255249e-02
-1.218980550765991211e-02 -1.378710120916366577e-01 2.648105472326278687e-02
-7.126701064407825470e-03 -9.989832341670989990e-02 1.826472580432891846e-02
-4.591122269630432129e-03 -2.580072879791259766e-01 3.792777657508850098e-03
-2.809658646583557129e-03 -2.210977822542190552e-01 -2.707299590110778809e-02
-8.499912917613983154e-03 -2.080546170473098755e-01 1.966074109077453613e-03
4.594272375106811523e-02 -1.182966828346252441e-01 6.505846977233886719e-05
1.659438014030456543e-03 -2.080970406532287598e-01 -2.777285873889923096e-02
-3.384064137935638428e-02 -1.256785392761230469e-01 -1.251756586134433746e-02
9.368598461151123047e-03 -1.236442774534225464e-01 -9.090535342693328857e-03
-5.559822544455528259e-03 -1.168871223926544189e-01 2.901002764701843262e-03
1.345150172710418701e-02 -1.345460563898086548e-01 -5.210041999816894531e-03
-6.236458942294120789e-02 -1.807658523321151733e-01 -1.517696678638458252e-02
-1.396311819553375244e-02 -1.560943126678466797e-01 -6.734728813171386719e-03
-1.365703344345092773e-02 -1.724281907081604004e-01 -4.987873136997222900e-03
3.578771650791168213e-02 -1.428797543048858643e-01 -1.260035857558250427e-02
-4.279196262359619141e-02 -1.986784338951110840e-01 -1.686250418424606323e-02
6.349191069602966309e-03 -1.453766226768493652e-01 -1.442847400903701782e-02
1.479047536849975586e-02 -1.917179524898529053e-01 1.666666567325592041e-02
2.310824021697044373e-02 -4.507943987846374512e-02 2.100799977779388428e-02
-3.853973746299743652e-02 -1.569638848304748535e-01 -3.360550105571746826e-02
3.541853651404380798e-02 -1.065518558025360107e-01 -5.121521651744842529e-03
1.282179355621337891e-02 -1.818285286426544189e-01 -5.975373089313507080e-03
6.739486008882522583e-03 -1.752959340810775757e-01 -1.510620117187500000e-03
