8.608362777158617973e-02 -4.901412222534418106e-01 7.314231665804982185e-02
1.653982563875615597e-01 -1.703325861599296331e-01 -2.954853873234242201e-02
4.548325203359127045e-02 -3.254765677265822887e-01 -7.979569875169545412e-02
1.568814739584922791e-01 -3.312999077606946230e-01 -8.005381783004850149e-02
4.102978017181158066e-02 4.389193020761013031e-01 6.990232685348019004e-02
-2.519188448786735535e-02 2.131000421941280365e-01 3.610582321562105790e-02
-7.161034923046827316e-02 -1.714321207255125046e-01 -8.023205073550343513e-02
1.562997773289680481e-01 -1.712810881435871124e-01 -7.955684908665716648e-02
-1.126944492571055889e-01 4.420598130673170090e-02 -7.912025274708867073e-02
-4.102468490600585938e-02 -2.143707056529819965e-02 7.963635551277548075e-02
6.922044232487678528e-02 -1.017585196532309055e-01 7.442634779727086425e-02
1.156624443829059601e-01 -1.338303908705711365e-01 -7.978379039559513330e-02
-6.018379377201199532e-02 -3.878226112574338913e-01 7.744561211438849568e-02
4.561537504196166992e-02 -8.242442714981734753e-02 7.329407834913581610e-02
1.193851642310619354e-01 -2.344558686017990112e-01 -7.939358497969806194e-02
-1.512563608703203499e-01 -1.324324735905975103e-01 -5.097642366308718920e-02
1.783154886215925217e-01 -4.456964023411273956e-01 -7.929480192251503468e-02
-3.065595962107181549e-02 1.031791027635335922e-01 -5.489070608746260405e-02
1.441571400500833988e-01 -1.292061898857355118e-02 -7.939012965653091669e-02
1.501140854088589549e-01 -1.233710153028368950e-01 3.755342215299606323e-03
-1.546202935278415680e-01 -1.568373031914234161e-01 7.280370010994374752e-02
-1.923383176326751709e-01 -4.348799753934144974e-01 -7.875530328601598740e-02
-2.203825186006724834e-01 -3.826870368793606758e-01 6.805119803175330162e-02
2.880777046084403992e-02 -4.605222097598016262e-02 7.382781954947859049e-02
2.043929770588874817e-01 -3.383969590067863464e-01 7.151102670468389988e-02
2.679311903193593025e-02 3.469416759908199310e-01 6.035639702167827636e-02
1.555271223187446594e-01 -4.578970875591039658e-01 -8.123329207592178136e-02
-1.986112452577799559e-01 -4.045837968587875366e-01 7.372171356109902263e-02
4.178423061966896057e-02 -4.978522155433893204e-01 7.242626883089542389e-02
-2.059316388331353664e-01 -4.175966350594535470e-01 -5.248354165814816952e-02
-2.140214741230010986e-01 -3.323566261678934097e-01 7.312435831408947706e-02
-6.195092527195811272e-02 -4.982982275541871786e-01 -7.819526786624919623e-02
2.335159573704004288e-02 -7.018436677753925323e-02 6.002603046363219619e-02
-1.209342479705810547e-01 7.100718840956687927e-02 6.047198902524542063e-02
2.925734268501400948e-02 3.458033781498670578e-02 7.672221120446920395e-02
-1.417893392499536276e-02 2.205553215462714434e-01 3.149532875977456570e-02
-1.681605809135362506e-01 -4.022288427222520113e-03 -5.219902974204160273e-03
4.261399991810321808e-02 1.000466314144432545e-01 -2.688476652838289738e-02
1.885687187314033508e-01 -2.710541049018502235e-01 7.118886057287454605e-02
2.824113983660936356e-02 1.035632491111755371e-01 -1.721480075502768159e-02
1.511405222117900848e-01 4.053329071030020714e-02 4.703809053171426058e-02
4.047345253638923168e-03 3.291823831386864185e-01 4.105144564528018236e-02
5.005395039916038513e-02 -3.016727622598409653e-01 7.516242314886767417e-02
-2.219641380943357944e-01 -2.893485585227608681e-01 -2.257992420345544815e-02
6.357152201235294342e-02 -4.287374136038124561e-02 7.398175669368356466e-02
1.794624774483963847e-01 -2.509155552834272385e-01 7.471645460464060307e-02
-1.385686080902814865e-01 5.235157720744609833e-02 1.020084362244233489e-02
-2.275032202014699578e-01 -3.496367661282420158e-01 3.488836111500859261e-02
4.804249200969934464e-02 -5.039660334587097168e-01 -7.039063429692760110e-02
3.759082220494747162e-02 -1.152867209166288376e-01 6.812367343809455633e-02
1.507491949014365673e-01 -4.722003787755966187e-01 7.136404514312744141e-02
-1.671886770054697990e-01 -1.816791360033676028e-02 -3.765199583722278476e-02
3.095166524872183800e-03 -3.855962660163640976e-01 7.955527969170361757e-02
2.132540657185018063e-01 -4.063457944430410862e-01 3.331492969300597906e-02
9.794579446315765381e-02 -2.847961615771055222e-01 -8.055744564626365900e-02
7.347732968628406525e-02 -3.414252884685993195e-01 7.383799343369901180e-02
1.557595808990299702e-01 -1.485718333860859275e-01 2.091372798895463347e-02
-1.869777672691270709e-01 -2.103071021847426891e-01 5.083366483449935913e-02
-1.470882901921868324e-01 3.752938099205493927e-02 5.883579014334827662e-02
-1.765048113884404302e-01 -1.966174115077592432e-01 -6.198503030464053154e-02
-1.017873315140604973e-02 1.146544748917222023e-01 -7.943939999677240849e-02
-2.229696367867290974e-01 -2.981136413291096687e-01 1.221502851694822311e-02
-1.514135533943772316e-01 3.259020252153277397e-02 -7.795833307318389416e-02
1.687978375703096390e-01 -4.434215370565652847e-03 -3.804565484460908920e-02
-4.624789766967296600e-02 -4.954079047311097383e-01 -2.727536973543465137e-02
-6.627667509019374847e-02 -4.805247671902179718e-01 -8.008497802074998617e-02
-1.627874546684324741e-01 -1.698106790427118540e-01 7.051235699327662587e-02
2.042380212806165218e-01 -2.991099432110786438e-01 -7.951493386644870043e-02
1.967170673888176680e-01 -2.453987747430801392e-01 -7.947781239636242390e-02
1.696412365417927504e-01 -8.477984461933374405e-03 4.726399655919522047e-02
1.445852853357791901e-01 -1.628434266895055771e-01 7.176923984661698341e-02
-1.698347413912415504e-02 2.013920641038566828e-01 2.830232917040120810e-02
1.395546346902847290e-01 -4.908002540469169617e-02 -7.913913810625672340e-02
4.456765635404735804e-02 -9.641618654131889343e-02 -7.954469986725598574e-02
1.746674776077270508e-01 -3.501755357719957829e-01 -8.035659592133015394e-02
1.357846660539507866e-02 3.525951388292014599e-01 7.575585163431242108e-02
-1.354331736220046878e-01 -4.749278826639056206e-01 -3.220880345907062292e-03
1.516607487574219704e-01 -1.342754763900302351e-01 6.182252243161201477e-02
-2.196161430329084396e-01 -3.610002202913165092e-01 -8.072393086331430823e-02
-2.004284808645024896e-01 -4.262445063795894384e-01 -4.723213822580873966e-02
-2.164127831347286701e-01 -4.006423922255635262e-01 -8.045287476852536201e-02
1.417097393423318863e-01 -4.602998569607734680e-01 7.319686515256762505e-02
1.463866671547293663e-01 -1.364151248708367348e-01 -7.913255167659372091e-02
1.636775243096053600e-01 -1.672141668386757374e-01 -3.478163183899596334e-02
5.797659931704401970e-02 -4.976662117987871170e-01 7.323478569742292166e-02
1.248307898640632629e-01 -3.166398480534553528e-01 -7.960995309986174107e-02
-2.195295324781909585e-01 -3.445437478367239237e-01 7.129183853976428509e-02
-4.859742335975170135e-02 -7.476384518668055534e-03 8.003246330190449953e-02
1.548308539204299450e-01 -8.630471932701766491e-02 -3.002323955297470093e-02
1.749708371935412288e-01 -1.857040040194988251e-01 1.937012863345444202e-02
6.861527625005692244e-02 -1.675200685858726501e-01 -8.044859219808131456e-02
-1.579329469241201878e-01 -7.958656828850507736e-02 -2.204557158984243870e-02
-6.090705608949065208e-02 -7.753411796875298023e-02 7.086288783466443419e-02
3.148265369236469269e-02 -3.050714593846350908e-01 7.171517913229763508e-02
-6.115926895290613174e-02 -4.947263512294739485e-01 -8.621815824881196022e-03
-1.642746008001267910e-01 -6.000953534385189414e-02 -1.102874253410845995e-02
-5.713809048756957054e-03 -2.003353056497871876e-01 7.347837509587407112e-02
-5.629439686890691519e-02 -4.961222317069768906e-01 7.383504894096404314e-02
2.189128519967198372e-02 2.870471309870481491e-01 8.019414416048675776e-02
9.794162493199110031e-02 -4.946464849635958672e-01 -5.329814308788627386e-02
-8.983504027128219604e-02 -2.795545244589447975e-02 7.414526893990114331e-02
1.534201562171801925e-01 -9.608916030265390873e-02 -1.289815492054913193e-02
-2.242714602034538984e-01 -3.826342316460795701e-01 1.762198831420391798e-02
-1.946583337849006057e-02 4.482704563997685909e-01 6.816802627872675657e-02
-1.640186724252998829e-01 -4.662511241622269154e-02 4.537198948673903942e-02
2.193202450871467590e-01 -3.006407395005226135e-01 -8.114505547564476728e-02
1.836289251223206520e-01 -2.427390739321708679e-01 -7.798849488608539104e-02
1.539830025285482407e-02 2.336823742371052504e-01 5.091466702288016677e-02
2.369075361639261246e-02 -4.298674426972866058e-01 7.183778332546353340e-02
-4.635059274733066559e-02 -7.151728472672402859e-02 6.046931364107877016e-02
4.422731464728713036e-02 4.032401931472122669e-01 6.276303093181923032e-02
1.957745812833309174e-01 -2.621713299304246902e-01 -7.970329257659614086e-02
2.150393044576048851e-01 -2.648517405614256859e-01 -7.438630831893533468e-02
9.094996377825737000e-03 4.983014604076743126e-01 4.427687951829284430e-02
1.570329237729310989e-01 -4.515477754175662994e-01 -7.905157259665429592e-02
-2.300792676978744566e-01 -3.432534891180694103e-01 5.184044875204563141e-02
1.966992639936506748e-01 -2.430559443309903145e-01 7.349105110188247636e-02
1.893927743658423424e-01 -2.768052704632282257e-01 7.275679218582808971e-02
-1.697128540836274624e-01 -4.533912662882357836e-01 6.730836734641343355e-02
1.525236731395125389e-01 3.369328752160072327e-02 6.088961602654308081e-02
-2.884115965571254492e-02 3.333655279129743576e-01 7.595644384855404496e-02
-1.028532814234495163e-01 8.242996735498309135e-02 6.233693653484806418e-02
1.517686813604086637e-01 -1.008247518911957741e-01 -2.556571412424091250e-02
-1.634441437199711800e-01 -4.524682490155100822e-01 -2.956358296796679497e-02
3.096701763570308685e-02 -9.285873547196388245e-02 -7.877205219119787216e-02
9.251451655291020870e-02 -2.817331897094845772e-01 7.395671017002314329e-02
1.473913360387086868e-01 -8.660075860098004341e-02 7.280437671579420567e-02
2.272329167462885380e-01 -3.454135959036648273e-01 4.052394902100786567e-02
-1.228666421957314014e-01 -4.605163000524044037e-01 -7.876837346702814102e-02
-1.404556930065155029e-01 -4.673507437109947205e-01 7.191116292960941792e-02
-8.426144067198038101e-02 -2.118782121688127518e-01 -8.058118715416640043e-02
1.118808314204216003e-01 -1.696601882576942444e-01 -8.098154480103403330e-02
3.253540070727467537e-02 -4.431651160120964050e-02 6.023600662592798471e-02
4.285186156630516052e-02 -2.892854595556855202e-01 -8.005929365754127502e-02
-5.152236705180257559e-02 -4.962374232709407806e-01 7.396387279732152820e-02
1.664488464593887329e-01 -4.421593295410275459e-02 -5.299807332630734891e-02
-3.408301994204521179e-02 -5.001588407903909683e-01 -5.560800433158874512e-03
1.099904626607894897e-01 -1.300986111164093018e-02 -7.966198283247649670e-02
-1.695071347057819366e-01 -1.906620105728507042e-01 7.176130916923284531e-02
-1.683505717664957047e-01 -2.176537262275815010e-01 -7.944709248840808868e-02
1.102065271697938442e-01 -4.962426014244556427e-01 7.401406508870422840e-02
1.626662968192249537e-02 2.898216163739562035e-01 3.968454943969845772e-02
-4.072678857482969761e-02 3.650408689863979816e-01 7.219451991841197014e-02
1.479160968447104096e-01 -1.117106379533652216e-01 7.350513880373910069e-02
5.756059754639863968e-02 9.016229398548603058e-02 7.179287564940750599e-02
2.340883016586303711e-03 -2.025786414742469788e-02 -8.035886043217033148e-02
-1.570539772510528564e-01 -3.544042077846825123e-01 -7.997421408072113991e-02
1.434947089292109013e-01 -8.189305919222533703e-02 7.404339249478653073e-02
-1.658644885756075382e-01 -4.208330827532336116e-02 3.516941692214459181e-02
-1.783365886658430099e-01 -4.459890276193618774e-01 7.344118773471564054e-02
1.442869398742914200e-01 -4.515612386167049408e-01 -8.033730171155184507e-02
-2.732587675563991070e-02 3.431471809744834900e-01 7.491438370198011398e-02
2.040283065289258957e-01 -4.234293652698397636e-01 -7.427847210783511400e-02
-1.208768319338560104e-02 -3.823999222368001938e-01 7.919601059984415770e-02
2.095991449896246195e-01 -2.988782096654176712e-01 -8.023689367109909654e-02
2.271858757594600320e-01 -3.161672023124992847e-01 -6.357047101482748985e-02
5.725137097761034966e-02 -4.994381037540733814e-01 -7.554964220616966486e-02
-2.649278705939650536e-02 1.511516715399920940e-01 7.971105084288865328e-02
3.187924902886152267e-02 7.586316205561161041e-02 7.209436316043138504e-02
-2.224440014688298106e-01 -3.859554263763129711e-01 4.926063783932477236e-02
-2.062970848055556417e-01 -2.490674003493040800e-01 -7.005343167111277580e-02
-1.556031926302239299e-01 -8.910160482628270984e-02 3.392059868201613426e-02
-6.584414746612310410e-02 -4.905003644526004791e-01 7.296679937280714512e-02
6.824163347482681274e-02 -3.444520062184892595e-01 7.290247268974781036e-02
-3.845905978232622147e-02 2.613495662808418274e-02 8.008804207202047110e-02
-1.505505014210939407e-02 -3.498575277626514435e-01 7.428613246884196997e-02
-1.622369191609323025e-01 -1.009206753224134445e-03 -7.755737449042499065e-02
-1.759251807816326618e-01 -4.316011648625135422e-01 7.426418265094980597e-02
-6.355405098292976618e-02 -5.696846172213554382e-02 7.441829604795202613e-02
1.903799590654671192e-01 -2.857974357903003693e-01 7.331379735842347145e-02
1.661065090447664261e-01 -4.543145969510078430e-01 -8.132765298068989068e-02
-2.022321377880871296e-01 -2.458006069064140320e-01 5.198047995509114116e-02
-1.760955825448036194e-01 -4.354193806648254395e-01 -7.865659147500991821e-02
1.809182021534070373e-01 -1.981722479686141014e-01 -7.057456090115010738e-02
8.402676880359649658e-02 -2.295138277113437653e-01 -8.050563745200634003e-02
1.630602602381259203e-01 1.810946455225348473e-02 2.443666687759105116e-02
-1.518605966120958328e-01 -4.588581919670104980e-01 7.276795199140906334e-02
-2.066118411021307111e-01 -2.591186179779469967e-01 7.249852048698812723e-02
-4.257997497916221619e-02 1.050955206155776978e-01 4.632822365965694189e-02
-1.951944120228290558e-01 -3.143795439973473549e-01 -7.874642661772668362e-02
1.560349906794726849e-01 -1.504293056204915047e-01 5.395700351800769567e-02
1.885964060202240944e-01 -2.584671806544065475e-01 -7.955246360506862402e-02
-7.359549589455127716e-02 -4.884438011795282364e-01 7.397133408812806010e-02
9.603728540241718292e-03 1.054471917450428009e-01 -7.904044784663710743e-02
1.883726343512535095e-01 -2.424268499016761780e-01 -8.022441086359322071e-02
5.269292043522000313e-02 -4.897460918873548508e-01 -8.021559979533776641e-02
-2.050038790330290794e-01 -2.503738321829587221e-01 -5.114188790321350098e-02
-5.104291252791881561e-02 -4.588148742914199829e-02 6.882367189973592758e-02
-2.194030024111270905e-02 -4.922218304127454758e-01 7.338738022372126579e-02
-2.176035608863458037e-01 -2.739981497870758176e-01 4.590778832789510489e-02
1.100683519616723061e-01 -4.843758065253496170e-01 7.326835708227008581e-02
2.218662430532276630e-01 -3.865808611735701561e-01 8.874309598468244076e-03
-1.507717706263065338e-01 -4.682654701173305511e-02 -8.056835056049749255e-02
-2.211340330541133881e-02 -3.383079059422016144e-01 7.376782689243555069e-02
-5.190032953396439552e-02 -4.988303583813831210e-01 -6.491795461624860764e-02
-7.415518350899219513e-02 -4.916713230777531862e-01 -6.493739387951791286e-02
2.266174671240150928e-01 -3.099137954413890839e-01 3.350854298332706094e-02
-2.266807369887828827e-01 -3.235359458485618234e-01 -6.872454052790999413e-02
-1.480607315897941589e-03 -3.965604938566684723e-01 -8.055245288414880633e-02
6.853768986184149981e-02 -1.549151726067066193e-01 -8.083974703913554549e-02
-8.320610504597425461e-02 2.160227764397859573e-02 -7.981472543906420469e-02
1.449568420648574829e-01 -5.739694461226463318e-02 -7.992632419336587191e-02
6.972477305680513382e-03 1.305301925167441368e-01 -1.914290245622396469e-02
1.888828673399984837e-01 -4.406271371990442276e-01 7.101269310805946589e-02
5.985204130411148071e-02 -2.845333307050168514e-01 -8.009740035049617290e-02
-3.194349352270364761e-02 4.863976377528160810e-01 7.322354082134552300e-02
2.166856098920106888e-01 -2.656398834660649300e-01 -4.506417614175006747e-02
-7.106166332960128784e-03 2.464278545230627060e-01 3.449637081939727068e-02
7.045564986765384674e-02 7.464236766099929810e-02 -8.015629544388502836e-02
-2.177679678425192833e-02 -4.966374337673187256e-01 7.261651533190160990e-02
1.688265739940106869e-01 -1.158105628564953804e-02 1.729312310635577887e-02
2.284589654300361872e-02 -2.628322073724120855e-01 7.356659125071018934e-02
-2.132571339607238770e-01 -3.821738166734576225e-01 -7.968318823259323835e-02
4.479826940223574638e-02 -9.445528313517570496e-02 -8.005223167128860950e-02
8.031559875234961510e-02 2.360928314737975597e-02 7.320422411430627108e-02
1.663472547661513090e-01 5.372739280574023724e-03 -4.154591650876682252e-02
7.896864227950572968e-02 -2.595082619227468967e-01 7.475561607861891389e-02
-1.502186189172789454e-01 -1.294815661385655403e-01 -4.629691873560659587e-03
1.508214343339204788e-01 -5.247130244970321655e-02 -7.878464460372924805e-02
4.107366595417261124e-02 1.022379533387720585e-01 2.988639622344635427e-03
-1.553525637136772275e-01 -9.356175432913005352e-02 4.737528599798679352e-02
-1.849514245986938477e-01 -2.478851547348313034e-01 -7.956677966285496950e-02
-2.913702838122844696e-02 1.063032518140971661e-01 -3.117918764473870397e-03
2.009371891617774963e-01 -2.982459282502532005e-01 7.231487450189888477e-02
7.293362310156226158e-02 8.107285946607589722e-03 -7.929657842032611370e-02
4.836998134851455688e-02 8.607173338532447815e-02 -7.966173405293375254e-02
-2.769684698432683945e-02 1.743268577847629786e-01 3.191498544765636325e-02
1.906366348266601562e-01 -2.840194534510374069e-01 7.144062314182519913e-02
1.858465932309627533e-02 2.393228730652481318e-01 4.534776762011460960e-02
2.293551480397582054e-02 1.261000731028616428e-01 2.807455766014754772e-02
1.174959875643253326e-01 -1.291075982153415680e-01 -7.977660710457712412e-02
-4.570630902890115976e-02 4.261898256372660398e-01 6.734329444589093328e-02
-5.917657492682337761e-02 -4.974201826262287796e-01 -7.012141743325628340e-02
-9.062844328582286835e-04 -3.783966843038797379e-01 7.644296524813398719e-02
1.882017548196017742e-01 -2.808529650792479515e-01 7.371802779380232096e-02
1.849170215427875519e-02 -6.614564266055822372e-02 5.952710658311843872e-02
-2.192821294302120805e-01 -2.732122242450714111e-01 -3.265404328703880310e-02
-2.813692844938486814e-02 2.282665437087416649e-01 7.250253821257501841e-02
1.992779746651649475e-01 -2.954831290990114212e-01 7.245090324431657791e-02
1.395027413964271545e-01 -1.613456010818481445e-02 -7.899803551845252514e-02
2.568352501839399338e-03 1.308174203149974346e-01 -1.592129874916281551e-02
-4.067967832088470459e-02 -2.303347988054156303e-01 7.383445219602435827e-02
1.530936728231608868e-01 -9.820368443615734577e-02 -6.222129566594958305e-03
4.392907349392771721e-02 -2.323607951402664185e-01 7.314552576281130314e-02
2.280899917241185904e-01 -3.394401008263230324e-01 -5.168727901764214039e-02
5.261768028140068054e-02 -3.617267450317740440e-01 7.795906648971140385e-02
-1.602586396038532257e-01 -3.154067881405353546e-02 -7.961680379230529070e-02
-1.267130859196186066e-01 6.716994103044271469e-02 -7.180478679947555065e-02
-4.005111940205097198e-02 9.231066523352637887e-02 -7.340141898021101952e-02
1.397005142644047737e-01 -4.791379580274224281e-01 3.300468134693801403e-02
-5.164732132107019424e-02 -2.570143528282642365e-02 7.363591436296701431e-02
-8.947575464844703674e-03 4.096951326355338097e-01 7.499901280971243978e-02
-1.915925182402133942e-02 1.540531939826905727e-01 7.971304655075073242e-02
-1.969199669547379017e-01 -2.275603823363780975e-01 -6.669496884569525719e-02
-1.262754648923873901e-01 -3.659253753721714020e-01 7.220282498747110367e-02
-8.365829067770391703e-03 6.982139684259891510e-02 7.821155106648802757e-02
-1.338359639048576355e-01 -2.848585555329918861e-01 -8.032972353976219893e-02
-8.297980763018131256e-02 -1.539627944584935904e-01 7.402875390835106373e-02
-2.100590094923973083e-01 -2.867708485573530197e-01 -7.986660685855895281e-02
-1.565070822834968567e-01 -1.831845506094396114e-01 7.339606573805212975e-02
-2.001451924443244934e-01 -4.220812395215034485e-01 -7.976560399401932955e-02
-1.489169150590896606e-01 -2.529141549021005630e-01 7.324342580977827311e-02
-1.379586905241012573e-01 -1.037038862705230713e-02 -8.028895978350192308e-02
1.393834073096513748e-01 -9.274259768426418304e-02 -7.895848201587796211e-02
-4.761368595063686371e-02 4.091292154043912888e-01 6.364599947119131684e-02
1.900933310389518738e-01 -3.445131881162524223e-01 -8.128269600274506956e-02
-3.337519930209964514e-02 -4.993168758810497820e-01 3.037806239444762468e-02
1.810200046747922897e-02 -1.870367950759828091e-01 7.313671009615063667e-02
-2.978143666405230761e-02 2.578731048852205276e-01 7.704112026840448380e-02
-6.324266456067562103e-02 1.505674934014678001e-02 -7.996819540858268738e-02
2.124832151457667351e-02 1.300507574342191219e-01 3.114490609732456505e-03
2.860325016081333160e-02 -1.236021677032113075e-01 6.007161701563745737e-02
-2.322783996351063251e-02 4.216286046430468559e-01 4.325894376961514354e-02
-3.365324536571279168e-02 4.846184812486171722e-01 5.905420647468417883e-02
-2.918989758472889662e-02 1.835804139263927937e-01 6.649179046507924795e-02
-2.477732300758361816e-02 -4.001110754907131195e-01 -8.009990083519369364e-02
-1.782281398773193359e-01 -2.335005083587020636e-01 -7.899560779333114624e-02
7.475796341896057129e-02 5.363003537058830261e-02 7.283535529859364033e-02
-2.227007654728367925e-01 -3.032862634863704443e-01 -7.850919337943196297e-02
5.768616683781147003e-03 -3.877088446170091629e-01 -8.078853331971913576e-02
-4.098037676885724068e-02 -1.544063889305107296e-01 7.459370204014703631e-02
-3.400036133825778961e-02 -2.501720329746603966e-01 7.366507197730243206e-02
1.483444282785058022e-01 -6.884597241878509521e-03 7.266836846247315407e-02
2.616465650498867035e-02 -8.518581604585051537e-02 5.946206755470484495e-02
1.615966856479644775e-01 -1.673801355063915253e-01 -7.889854093082249165e-02
-1.634207703173160553e-01 -4.809840559028089046e-02 7.338562968652695417e-02
-6.867412477731704712e-02 -3.659187816083431244e-01 -8.033755805809050798e-02
4.109100112691521645e-02 -2.602561069652438164e-01 7.310473895631730556e-02
7.111319433897733688e-02 -5.005630590021610260e-01 6.145086942706257105e-02
4.393615992739796638e-02 4.030398596078157425e-01 5.958000174723565578e-02
-2.166717611253261566e-01 -3.303734078072011471e-01 7.322456792462617159e-02
6.857621157541871071e-02 -4.936824832111597061e-01 7.296126836445182562e-02
-2.213213471695780754e-01 -2.847632900811731815e-01 -8.874256862327456474e-03
-1.513329494046047330e-01 -1.348133776336908340e-01 -3.413228942372370511e-02
-8.890146203339099884e-02 -1.431853696703910828e-01 -8.117501057859044522e-02
1.340186088345944881e-01 6.829758943058550358e-02 -4.262495698640123010e-03
-3.666092175990343094e-02 -3.857307620346546173e-01 7.633836800232529640e-02
-9.085691126529127359e-02 -4.908518791198730469e-01 7.244457397609949112e-02
2.311876090243458748e-02 8.425415866076946259e-02 -7.984142482746392488e-02
7.765096612274646759e-02 -4.933425597846508026e-01 7.315605075564235449e-02
1.400125045329332352e-01 -1.392547655850648880e-01 7.290794048458337784e-02
1.657867196481674910e-01 9.875031653791666031e-03 6.225406174780800939e-02
-1.221580654382705688e-01 -3.452527709305286407e-01 7.235349458642303944e-02
1.974467264954000711e-01 -2.286174073815345764e-01 -1.582255290122702718e-02
-1.428923066705465317e-01 2.470442466437816620e-02 7.451835833489894867e-02
2.673775108996778727e-02 -4.641507901251316071e-01 -8.036267408169806004e-02
1.638601571321487427e-01 -1.675235764123499393e-01 -3.414150717435404658e-02
9.376100869849324226e-02 -4.957235460169613361e-01 -5.320595658849924803e-02
-1.357303455006331205e-02 -5.024015754461288452e-01 -7.323007725062780082e-02
-1.452584154903888702e-01 -4.759205654263496399e-01 7.189504662528634071e-02
-2.245209054090082645e-01 -3.188977055251598358e-01 -7.015416819194797426e-02
-1.604526749579235911e-01 -1.625227869953960180e-01 -5.597406008746474981e-02
-1.648401333950459957e-01 -1.957541946321725845e-01 7.235912885516881943e-02
-1.749104680493474007e-02 1.487427111715078354e-01 6.474949957919307053e-03
-1.962900382932275534e-02 -4.065060392022132874e-01 7.978455506963655353e-02
2.727229625452309847e-02 3.083911295980215073e-01 7.805876078782603145e-02
-1.235376335680484772e-01 -4.762368705123662949e-01 -4.549790592864155769e-02
1.236398257315158844e-01 7.684296183288097382e-02 -5.969955104228574783e-02
2.100197151303291321e-01 -3.805188518017530441e-01 -8.142870711162686348e-02
2.968090155627578497e-02 4.856531294062733650e-01 5.014605983160436153e-02
-2.246060855686664581e-01 -3.422363824211061001e-01 7.028269779402762651e-02
1.779598584398627281e-01 -4.513122178614139557e-01 -6.015902396757155657e-02
6.949534267187118530e-02 -7.981811970239505172e-02 7.319053704850375652e-02
-3.125219821231439710e-02 1.905653169378638268e-01 6.753016903530806303e-02
-1.700598197057843208e-01 -1.422976091271266341e-02 -3.188034832419361919e-03
4.863092070445418358e-02 -2.404286712408065796e-01 7.252102834172546864e-02
-4.642011411488056183e-02 -2.012572214007377625e-01 -8.093481668038293719e-02
7.888829382136464119e-02 9.306567348539829254e-02 1.147123501868918538e-02
2.114283074624836445e-01 -3.217813931405544281e-01 -8.009325992316007614e-02
1.566907716915011406e-02 1.392476782202720642e-01 7.394519358058460057e-03
1.677842503995634615e-01 -5.288467503851279616e-02 4.866897326428443193e-02
-6.072685867547988892e-02 -3.629368059337139130e-01 7.479735556989908218e-02
1.706509813666343689e-01 -1.927808150649070740e-01 -7.928745076060295105e-02
1.761023135622963309e-01 -1.864473670721054077e-01 -2.028247715497855097e-02
-4.343330208212137222e-02 1.050778124481439590e-01 5.232316895853728056e-02
2.029240084812045097e-02 -3.243726678192615509e-02 7.804914750158786774e-02
1.428909599781036377e-03 -5.085651203989982605e-01 7.157389144413173199e-02
1.074331589043140411e-01 -2.622997481375932693e-01 -8.018231147434562445e-02
5.985562270507216454e-02 -2.967456034384667873e-01 7.478456554235890508e-02
1.331548355519771576e-01 -1.181245543994009495e-01 -7.980388100259006023e-02
-4.803056828677654266e-02 8.428962714970111847e-02 -7.866150513291358948e-02
-2.769873850047588348e-02 1.017847536131739616e-01 -7.379219401627779007e-02
-4.643489583395421505e-02 4.465245110914111137e-01 5.554197879973798990e-02
1.803006231784820557e-02 -6.641389289870858192e-02 7.324228098150342703e-02
-3.123810514807701111e-03 -4.010360911488533020e-01 -8.047512825578451157e-02
3.129819454625248909e-02 -4.945792553480714560e-01 -7.598198927007615566e-02
9.169032797217369080e-02 8.625382231548428535e-02 -7.495720589940901846e-02
6.602738611400127411e-02 7.090717740356922150e-02 7.237951969727873802e-02
-2.281732080737128854e-01 -3.492423249408602715e-01 2.111945627257227898e-02
-2.026050281710922718e-01 -2.427340680733323097e-01 6.615214166231453419e-03
1.392750423401594162e-01 -9.324916545301675797e-02 -7.924169267062097788e-02
-3.148608282208442688e-02 4.536144093144685030e-01 4.459912609308958054e-02
6.483907299116253853e-02 -4.979449976235628128e-01 7.260045700240880251e-02
-1.749404798028990626e-01 -1.907881968654692173e-01 1.143028143269475549e-02
-1.519805788993835449e-01 -1.022516284137964249e-01 -8.030423242598772049e-02
-1.056378604844212532e-01 2.624296303838491440e-02 7.363648840691894293e-02
-1.489759546238929033e-01 -1.326254582963883877e-01 -7.600780483335256577e-02
-4.190268687671050429e-02 4.700449488591402769e-01 5.585310266178566962e-02
9.842110797762870789e-03 2.759144967421889305e-01 3.766171232564374804e-02
1.322587952017784119e-02 -1.649779621511697769e-01 7.354746258351951838e-02
2.085377462208271027e-02 1.296406293986365199e-01 1.412009673367720097e-02
-1.232102625072002411e-01 -9.170647338032722473e-02 -7.950153585989028215e-02
-3.274719975888729095e-02 -8.098096540197730064e-02 6.056570186046883464e-02
2.005186751484870911e-01 -3.146997373551130295e-01 7.198357488960027695e-02
-7.106892205774784088e-02 -3.467083442956209183e-01 -8.012650336604565382e-02
-5.291287042200565338e-02 5.475747212767601013e-02 7.945064269006252289e-02
-4.207252780906856060e-02 4.162665596231818199e-01 7.235254521947354078e-02
-4.970557335764169693e-02 -4.716816432774066925e-01 -7.881328789517283440e-02
-1.543392501771450043e-01 -1.968639316037297249e-01 -7.911929301917552948e-02
-1.597342765890061855e-01 -7.397393597057089210e-02 -3.325892519205808640e-02
2.032269404735416174e-01 -2.408843524754047394e-01 -7.683173142140731215e-02
1.390516757965087891e-01 -4.010267555713653564e-03 -7.873965636827051640e-02
-2.236150852404534817e-01 -3.080308132339268923e-01 -2.309524081647396088e-02
-4.419427388347685337e-02 3.918655309826135635e-01 4.772398597560822964e-02
3.739338601008057594e-02 3.703537499532103539e-01 6.575269927270710468e-02
1.670757130486890674e-01 -1.430956902913749218e-02 -7.543041097233071923e-02
3.538496978580951691e-02 -4.889582730829715729e-01 -7.866662414744496346e-02
2.294102958403527737e-01 -3.316044621169567108e-01 -4.151075927074998617e-02
4.192645149305462837e-02 -5.016963623929768801e-01 2.918491588206961751e-02
-2.689078124240040779e-02 3.041759785264730453e-02 -7.947638991754502058e-02
-2.028695400804281235e-02 -1.553789630997925997e-01 6.054838513955473900e-02
-6.522721238434314728e-02 8.524884213693439960e-02 -7.709475187584757805e-02
6.405339762568473816e-02 3.788305073976516724e-02 7.291843974962830544e-02
9.825185686349868774e-02 -2.444848231971263885e-01 -8.017239160835742950e-02
-1.332885827869176865e-01 -4.864031068864278495e-01 4.947510024067014456e-03
2.157693476183339953e-01 -4.003243406768888235e-01 7.122204522602260113e-02
-6.077553890645503998e-02 -3.776248022913932800e-01 7.501947796845342964e-02
-3.235537000000476837e-02 -4.960695058107376099e-01 3.900913987308740616e-03
1.530473283492028713e-02 4.075286835432052612e-01 7.099598151398822665e-02
-1.362154148519039154e-01 -3.687590658664703369e-01 7.245982903987169266e-02
3.823727276176214218e-02 -2.637078240513801575e-01 -8.057352725882083178e-02
-1.227810364216566086e-01 -2.577179726213216782e-01 7.317885116208344698e-02
2.229050830937922001e-01 -3.003712687641382217e-01 -7.502498611574992537e-02
2.017858382314443588e-01 -4.335991684347391129e-01 6.152560107875615358e-02
-4.115514573641121387e-03 2.844785731285810471e-01 3.912981646135449409e-02
-1.745932511985301971e-01 -1.879926249384880066e-01 7.200072030536830425e-02
2.791936602443456650e-02 -4.989299147855490446e-01 2.626014652196317911e-02
6.207080697640776634e-02 -3.116105869412422180e-01 7.457218598574399948e-02
1.512319594621658325e-02 -6.802483834326267242e-02 5.947826348710805178e-02
8.194221463054418564e-02 -5.007690303027629852e-01 6.524456245824694633e-02
1.022517210803925991e-01 -3.280198890715837479e-01 7.414240256184712052e-02
1.697111614048480988e-01 -2.094037737697362900e-01 7.226799242198467255e-02
-5.931287596467882395e-03 1.162443975917994976e-01 -7.963949802797287703e-02
1.606012792326509953e-01 -4.465422909706830978e-01 7.263457961380481720e-02
-3.755803219974040985e-03 3.691494707018136978e-01 4.490541305858641863e-02
2.228657272644340992e-01 -3.718189448118209839e-01 -5.085539945866912603e-02
3.354059904813766479e-02 1.040097442455589771e-01 2.382326091174036264e-02
-1.551629019668325782e-01 -1.466719495947472751e-01 -3.336498001590371132e-02
-1.045972667634487152e-01 -3.429879806935787201e-01 7.282483065500855446e-02
1.226305440068244934e-01 2.145297080278396606e-02 -7.852964755147695541e-02
1.469284817576408386e-01 5.453688604757189751e-02 -6.152105925139039755e-03
3.990453993901610374e-02 3.909944053739309311e-01 6.607047439320012927e-02
1.348602818325161934e-03 2.389474092051386833e-01 7.944754662457853556e-02
2.156377285718917847e-01 -3.776225652545690536e-01 -8.197221730370074511e-02
-7.780461199581623077e-02 -4.803828150033950806e-01 7.200938509777188301e-02
4.294088948518037796e-02 1.001254860311746597e-01 -5.914481123909354210e-02
-1.985160633921623230e-05 4.904083032160997391e-01 7.619814015924930573e-02
-2.240776767721399665e-01 -3.018452201504260302e-01 -6.804121378809213638e-02
1.022307723760604858e-01 8.224420715123414993e-02 7.151720044203102589e-02
2.114225942641496658e-01 -3.770570023916661739e-01 -8.265998074784874916e-02
-2.446783846244215965e-02 1.195167792029678822e-01 -1.519980013836175203e-02
6.020564027130603790e-02 8.084290660917758942e-02 -8.031014079460874200e-02
2.681925753131508827e-02 2.972031654790043831e-01 7.852777355583384633e-02
-1.902511642547324300e-01 -4.353885222226381302e-01 7.351609156467020512e-02
1.318229502066969872e-01 6.668396503664553165e-02 -5.397184389585163444e-02
1.529279681853950024e-01 -1.051819045096635818e-02 -7.927604147698730230e-02
-1.367732696235179901e-02 2.902649333700537682e-01 4.023120494093745947e-02
4.602136183530092239e-02 -2.308157999068498611e-01 -8.017201290931552649e-02
-7.915961928665637970e-02 -3.230259455740451813e-01 7.415147993015125394e-02
-2.089091185480356216e-01 -2.623633262701332569e-01 6.663233588915318251e-02
9.788519889116287231e-02 8.710412844084203243e-02 2.386683903750963509e-03
-1.931629423052072525e-01 -4.399190582334995270e-01 7.292489148676395416e-02
1.608074605464935303e-01 -1.642835400998592377e-01 -7.886994653381407261e-02
1.386905470862984657e-01 -4.797773226164281368e-01 2.058173879049718380e-03
1.370109193958342075e-01 -1.278006372449453920e-01 7.483647769549861550e-02
1.318901106715202332e-01 -4.821493849158287048e-01 7.256172038614749908e-02
-1.912849678192287683e-01 -2.159376284107565880e-01 6.170942907920107245e-02
-1.554501508362591267e-01 -1.887505408376455307e-02 7.460017281118780375e-02
-9.224351681768894196e-02 -4.874560339376330376e-01 -2.633282914757728577e-02
-2.171622440218925476e-01 -2.962333206087350845e-01 7.291943044401705265e-02
2.220293735153973103e-01 -2.835008762776851654e-01 -4.809102055151015520e-02
1.774781849235296249e-02 7.004913501441478729e-02 7.811330165714025497e-02
8.559505641460418701e-02 -3.103602828923612833e-01 7.434823072981089354e-02
-1.984302466735243797e-02 1.439286321401596069e-01 7.951704796869307756e-02
-6.067840149626135826e-02 -4.947164487093687057e-01 4.254590114578604698e-02
-7.550381124019622803e-03 -4.738237075507640839e-01 -7.946887181606143713e-02
-3.345510177314281464e-02 -4.973014541901648045e-01 2.123939269222319126e-02
-5.963928997516632080e-02 7.546721026301383972e-02 -7.920635351911187172e-02
1.170970769599080086e-01 8.246600581333041191e-02 8.185893064364790916e-03
-5.943456199020147324e-04 3.031949778087437153e-01 4.080555995460599661e-02
9.735366620589047670e-03 3.282902715727686882e-01 4.095658729784190655e-02
-1.641319299815222621e-01 -6.306210550246760249e-02 7.392218743916600943e-03
-9.589881636202335358e-02 -9.842659812420606613e-03 7.373688032384961843e-02
-3.942293021827936172e-02 -4.994489520904608071e-01 -6.616341025801375508e-02
-1.429545171558856964e-01 4.446330945938825607e-02 6.937436218140646815e-02
2.293812938733026385e-01 -3.313896134495735168e-01 -3.885319817345589399e-02
-1.427957019768655300e-02 3.472784049808979034e-01 7.917547668330371380e-02
-1.650600791908800602e-01 -3.853906935546547174e-03 -6.261357350740581751e-02
-2.725220611318945885e-02 4.013305027037858963e-01 6.809463776880875230e-02
-1.805713474750518799e-01 -2.382094431668519974e-01 7.292531419079750776e-02
1.313161626458168030e-01 -3.029553815722465515e-01 -8.043782319873571396e-02
2.202027345774695277e-01 -3.835361250676214695e-01 -7.921853772859321907e-02
2.758576907217502594e-02 -7.549307134468108416e-03 7.264360133558511734e-02
-2.283555701724253595e-01 -3.447836244013160467e-01 -7.798960013315081596e-02
-8.167786616832017899e-02 -4.964891038835048676e-01 7.256307825446128845e-02
1.973295956850051880e-02 -3.794437181204557419e-01 -8.136538947292137891e-02
2.027256691362708807e-01 -4.299293868243694305e-01 -1.679925573989748955e-02
-4.643153026700019836e-02 -4.971922482363879681e-01 -4.083620291203260422e-02
2.170576718635857105e-01 -3.838737448677420616e-01 -8.081602276070043445e-02
3.404123568907380104e-02 3.665993218310177326e-01 4.658347088843584061e-02
3.383646160364151001e-02 -8.241176069714128971e-02 5.952048592735081911e-02
-1.600089342100545764e-01 -7.069109193980693817e-02 2.054039755603298545e-02
4.210697766393423080e-02 -2.988807798828929663e-01 -7.987518038135021925e-02
8.191622048616409302e-02 -1.531174946576356888e-01 7.228714902885258198e-02
7.357438560575246811e-02 -3.390101245604455471e-01 7.385432452429085970e-02
-8.483489416539669037e-02 -1.233980990946292877e-01 -8.100264938548207283e-02
-1.420006006956100464e-01 -3.698193635791540146e-01 -8.005839434918016195e-02
-2.352945506572723389e-02 -4.016210474073886871e-01 7.978385331807658076e-02
1.397952452534809709e-01 -1.160048772580921650e-01 -7.954598276410251856e-02
9.369385428726673126e-02 8.909012679941952229e-02 2.107908640755340457e-02
2.255844030005391687e-01 -3.587138130678795278e-01 -7.647962833289057016e-02
-2.085948875173926353e-02 1.454786341637372971e-01 8.006696368101984262e-02
-5.366740992758423090e-02 -3.866407368332147598e-01 7.542786642443388700e-02
-1.386645957827568054e-01 -1.729941535741090775e-01 -8.114502497483044863e-02
2.054129894822835922e-01 -3.062121514230966568e-01 -7.902200147509574890e-02
-1.545530456351116300e-01 -9.465668071061372757e-02 -4.588230745866894722e-03
-3.389901085756719112e-02 4.192653223872184753e-01 4.325457243248820305e-02
1.464343350380659103e-01 5.399490939453244209e-02 -2.977506922616157681e-02
1.391046638600528240e-01 -1.085689687170088291e-01 -7.970498618669807911e-02
-3.672511503100395203e-02 5.028714239597320557e-02 8.022073563188314438e-02
1.044115871191024780e-01 -6.573016569018363953e-02 -7.983321871142834425e-02
-2.180899080121889710e-01 -2.736885737976990640e-01 -1.068688556551933289e-02
1.724374433979392052e-02 -4.562541805207729340e-01 7.181157777085900307e-02
1.029940592125058174e-01 -4.944446082226932049e-01 3.843859303742647171e-03
-1.108124055899679661e-01 -4.854710416402667761e-01 -5.771456379443407059e-02
8.802017883863300085e-02 -4.910310283303260803e-01 -8.095425961073487997e-02
2.250321600586175919e-01 -3.516283240169286728e-01 1.221926941070705652e-03
1.410527885891497135e-01 -1.555759496986865997e-01 -7.898933207616209984e-02
1.562525392509996891e-01 3.643442690372467041e-02 2.779379487037658691e-02
1.233460977673530579e-01 -3.840813413262367249e-02 -7.884940016083419323e-02
-1.173021309077739716e-01 -1.063487138599157333e-01 7.314582704566419125e-02
3.279524482786655426e-02 -2.216092050075531006e-01 7.145495899021625519e-02
8.385151741094887257e-03 8.500994555652141571e-02 7.793822651728987694e-02
-1.836061412468552589e-01 -2.076570261269807816e-01 -5.030634440481662750e-02
1.495102420449256897e-03 -4.878979213535785675e-01 -7.908232370391488075e-02
1.557110361754894257e-01 -4.693925036117434502e-01 -8.954073884524405003e-03
8.218368515372276306e-02 -4.915752056986093521e-01 7.305139326490461826e-02
3.624441754072904587e-02 -8.525420911610126495e-02 5.947263399139046669e-02
1.664222723338752985e-01 -4.182558879256248474e-02 -7.455941679654642940e-02
1.454578116536140442e-01 -1.135288737714290619e-01 -7.847598125226795673e-02
-5.973653681576251984e-02 8.633237704634666443e-02 -7.919624261558055878e-02
1.166967619210481644e-01 -4.898890629410743713e-01 3.425012959633022547e-02
-1.905010640621185303e-01 -3.378123566508293152e-01 -8.078825415577739477e-02
2.104376778006553650e-01 -3.487911231350153685e-01 7.084434386342763901e-02
-2.684179076459258795e-02 3.111207149922847748e-01 5.962737253867089748e-02
-2.105940610636025667e-01 -4.086260198964737356e-01 -5.425432440824806690e-02
-1.456320267170667648e-01 -7.467668503522872925e-03 -7.970200933050364256e-02
1.852224529720842838e-01 -4.397014556452631950e-01 -8.109811169560998678e-02
-1.817095093429088593e-02 4.896260029636323452e-01 4.533925699070096016e-02
7.359541440382599831e-02 -4.894056562334299088e-01 7.317766046617180109e-02
-2.088171616196632385e-02 1.357078407891094685e-01 -2.904211127315647900e-03
1.556551307439804077e-01 -1.722493972629308701e-01 -7.896295585669577122e-02
-3.780890675261616707e-02 -4.654695689678192139e-01 7.308065006509423256e-02
-2.218277379870414734e-01 -3.947810679674148560e-01 -7.886202889494597912e-02
1.693659287411719561e-01 -4.621871402487158775e-01 -7.870124594774097204e-02
1.679658349603414536e-01 -1.883620191365480423e-01 -7.796719390898942947e-02
2.631750889122486115e-02 -5.004360302700661123e-01 -3.576076403260231018e-02
5.574281094595789909e-04 2.733185547403991222e-01 3.697942133294418454e-02
-1.831260868348181248e-01 -2.052597485017031431e-01 -4.046587075572460890e-02
-1.901500541716814041e-01 -2.251581928576342762e-01 4.089758737245574594e-02
-2.300251275300979614e-03 -5.584300309419631958e-02 -8.091303927358239889e-02
2.999794483184814453e-02 -1.309955678880214691e-01 -7.924913289025425911e-02
-2.191011123359203339e-01 -3.089618375524878502e-01 7.204927643761038780e-02
8.822837262414395809e-03 2.496227556839585304e-01 7.890549139119684696e-02
2.867142064496874809e-02 8.363649621605873108e-02 -7.946952513884752989e-02
-2.176773622632026672e-01 -3.067515511065721512e-01 7.133131334558129311e-02
1.515448596328496933e-01 -4.651819840073585510e-01 -7.920098002068698406e-02
3.252865222748368979e-02 4.353334568440914154e-02 7.557182200253009796e-02
2.339792298153042793e-02 1.336441996973007917e-01 2.327549407345941290e-02
1.337474137544631958e-01 -9.773293882608413696e-02 -7.917190622538328171e-02
1.450809631496667862e-01 -5.526164732873439789e-02 -7.853037631139159203e-02
-9.676327742636203766e-02 -4.864202588796615601e-01 7.267226371914148331e-02
1.808786168694496155e-01 -2.303550262004137039e-01 6.945389788597822189e-02
1.540347058326005936e-01 -4.700340824201703072e-01 -7.974190881941467524e-02
1.511205509305000305e-01 -1.353185214102268219e-01 -7.936608465388417244e-02
2.324211969971656799e-02 8.285382948815822601e-02 7.856069365516304970e-02
-4.593790322542190552e-02 8.469440229237079620e-02 7.233142550103366375e-02
2.097594160586595535e-01 -3.101110402494668961e-01 -7.866610633209347725e-02
-2.218342508422210813e-02 1.043681695591658354e-01 -6.630686245625838637e-02
1.951032131910324097e-02 1.435972871258854866e-01 7.889390550553798676e-02
3.732866467908024788e-02 3.623262383043766022e-01 7.217624614713713527e-02
-4.520003974903374910e-02 4.566249579656869173e-01 4.811306641204282641e-02
-2.931911533232778311e-02 2.452855529263615608e-01 6.624276994261890650e-02
-1.742355599999427795e-01 -1.951922976295463741e-01 5.108816578285768628e-02
1.670753906946629286e-01 -3.695484530180692673e-02 -6.092001179058570415e-02
-1.511550843715667725e-01 -2.518224548548460007e-01 7.333464187104254961e-02
3.334604017436504364e-02 1.025691507384181023e-01 -1.365882239770144224e-02
-2.263622852042317390e-01 -3.467874354682862759e-01 -5.142106115818023682e-02
1.565489089116454124e-01 4.307544697076082230e-02 1.031731552211567760e-02
1.468122433871030807e-01 -3.651570901274681091e-02 -7.884499989449977875e-02
4.316801717504858971e-02 -5.051734838634729385e-01 -6.805201125098392367e-02
1.535292249172925949e-01 -1.408851528540253639e-01 -5.556873109890148044e-02
-6.253951787948608398e-02 -7.887719315476715565e-02 6.005417840788140893e-02
1.835726131685078144e-02 3.587953967507928610e-01 4.544999916106462479e-02
1.101872734725475311e-01 1.458983868360519409e-03 -7.956078567076474428e-02
-7.095401547849178314e-02 -4.901530072093009949e-01 7.275371556170284748e-02
8.660145103931427002e-03 -3.241323730908334255e-01 -8.057614980498328805e-02
-2.214874051278457046e-01 -3.870574078755453229e-01 -1.584029244258999825e-02
7.795877265743911266e-02 -2.781943553709425032e-01 7.484092190861701965e-02
1.981937399832531810e-01 -2.305076187476515770e-01 -5.345005559502169490e-02
-3.074159892275929451e-02 -1.949253608472645283e-01 7.440105482237413526e-02
2.863632643129676580e-02 4.209151025861501694e-01 6.852937531948555261e-02
-2.279602381167933345e-01 -3.157557661179453135e-01 5.935123935341835022e-02
-1.423468347638845444e-01 2.712370175868272781e-02 7.455116871278733015e-02
-1.457651477539911866e-01 -4.683435400947928429e-01 -4.837971879169344902e-03
2.040728210704401135e-01 -4.053855934180319309e-01 7.272819650825113058e-02
2.129430416971445084e-01 -3.362751910462975502e-01 7.194025884382426739e-02
-7.947601377964019775e-03 -3.808482345193624496e-01 7.874513859860599041e-02
1.680566817522048950e-01 -1.783727966248989105e-01 -7.901563937775790691e-02
4.064745444338768721e-02 4.504234017804265022e-01 7.198625931050628424e-02
1.462932932190597057e-01 -4.760297383181750774e-01 1.007490430492907763e-02
-9.598681889474391937e-02 -4.885725136846303940e-01 -4.786246782168745995e-02
-1.134610306471586227e-01 -2.065744874998927116e-01 7.364044955465942621e-02
5.766650289297103882e-02 -4.879558626562356949e-01 -7.978628925047814846e-02
-4.036307893693447113e-02 -3.899328652769327164e-01 -8.004666271153837442e-02
9.285229304805397987e-02 -4.955806334037333727e-01 5.319323972798883915e-03
-6.381795182824134827e-02 -9.295495692640542984e-02 6.274590617977082729e-02
1.487548891454935074e-01 -6.571394344791769981e-02 7.287472265306860209e-02
1.831362992525100708e-01 -3.905155565589666367e-01 -8.084554539527744055e-02
1.615482810884714127e-01 2.034230763092637062e-02 -7.143334974534809589e-02
-2.112023010849952698e-01 -2.635507772793062031e-01 1.966804661788046360e-02
1.968415798619389534e-01 -2.262732349336147308e-01 8.908898627851158381e-03
1.311304494738578796e-01 -1.012520976364612579e-01 -7.912035542540252209e-02
-1.965689286589622498e-01 -3.733216412365436554e-01 7.288780272938311100e-02
8.791797235608100891e-02 -4.044842384755611420e-01 -8.085589908296242356e-02
1.256195455789566040e-01 -2.685133982449769974e-01 -8.003308868501335382e-02
1.395099591463804245e-01 -1.690592188388109207e-01 7.133370894007384777e-02
1.446038995636627078e-01 -4.782604719512164593e-01 -6.397210690192878246e-02
1.623001291882246733e-01 -6.589579628780484200e-02 -2.919581344758626074e-02
1.513816720107570291e-01 -1.371661152807064354e-01 -2.725829114206135273e-02
-3.252348210662603378e-02 -3.509001322090625763e-01 7.457836403045803308e-02
1.258952952921390533e-01 -8.291254565119743347e-02 -7.982100045774132013e-02
1.657699919305741787e-01 -4.623625818639993668e-01 -6.890962249599397182e-03
7.696543680503964424e-02 6.852080672979354858e-02 -8.024747518356889486e-02
-2.250884330132976174e-01 -3.633371251635253429e-01 3.919306956231594086e-02
-2.910441346466541290e-02 1.012942772358655930e-01 -6.454950617626309395e-02
-1.750658554956316948e-01 -1.940449685207568109e-01 -4.276446253061294556e-02
7.575505599379539490e-02 -4.610059112310409546e-01 7.387984311208128929e-02
1.705537177622318268e-01 -4.531865380704402924e-01 -7.911341823637485504e-02
2.835800591856241226e-02 2.772784642875194550e-01 6.157866015564650297e-02
-6.334018893539905548e-02 9.569647908210754395e-02 5.308774459990672767e-02
2.443142374977469444e-02 1.191823496483266354e-01 -4.693932220106944442e-03
-2.963763626758009195e-02 1.213553883135318756e-01 6.557413260452449322e-03
1.309493556618690491e-02 1.470166947692632675e-01 7.899358263239264488e-02
-6.687808083370327950e-02 -1.918095587752759457e-01 7.328556478023529053e-02
-2.841160993557423353e-02 -8.812021464109420776e-03 -8.051899645943194628e-02
1.637917360058054328e-01 -1.676808347692713141e-01 6.959446845576167107e-02
6.781771499663591385e-02 9.449451882392168045e-02 1.820826210314407945e-02
-1.686798739247024059e-01 -1.790054107550531626e-01 4.681950365193188190e-02
3.090915642678737640e-02 2.173543814569711685e-02 7.213860284537076950e-02
-6.124773714691400528e-02 7.303471304476261139e-02 -7.964141212869435549e-02
1.518377102911472321e-02 2.340302653610706329e-01 5.105705006280913949e-02
-1.294140960089862347e-02 2.620570957660675049e-01 3.631964360829442739e-02
-3.225668147206306458e-02 -4.961184337735176086e-01 7.145363651216030121e-02
2.618836984038352966e-02 1.031339033506810665e-01 -2.498763462062925100e-02
2.033599866554141045e-01 -2.806815765798091888e-01 7.409420458134263754e-02
